 3.7787559 1.3948010 -0.8221920
 5.6442671 0.9877629 0.1995512
 4.5604777 1.5955206 -1.2348193
 5.4571247 0.3046004 -0.9975019
 5.7115688 1.0641203 0.2152411
 5.4449387 0.2837688 -1.0713367
 4.4792776 1.2193875 -0.2956910
 4.9350500 1.0851401 0.0669262
 3.7441700 1.5333219 -1.4055994
 5.7366147 0.3049433 0.2962289
 5.4548130 0.5459561 -0.9535068
 3.4712858 1.5284269 -1.0975034
 5.4574804 0.2353818 -0.8869314
 5.7442021 0.4698762 0.4174550
 4.4559479 1.3139758 -0.5470175
 5.7616515 0.1395660 0.3382219
 5.7384701 0.4578859 0.4151712
 3.0918407 0.9960377 -2.0978513
 5.4517126 0.2771263 -1.0715731
 5.4274998 0.7481439 -0.8818169
 4.1467457 1.2988857 -0.5330991
 3.6849275 1.4473552 -0.9194500
 5.4800110 0.3629350 -0.8586398
 5.7311139 0.8038974 0.5458294
 5.4838219 0.2493003 -0.8967103
 4.1756401 1.6118506 -1.2752273
 5.4447942 0.4658127 -0.9788861
 3.6270218 1.4313112 -0.8745031
 4.4452376 1.3197522 -0.5547215
 5.4158635 0.8279120 -0.9175270
 5.3259616 -0.0787500 -1.8569263
 5.4353428 1.0696526 -0.7253054
 5.3781028 -0.0910074 -1.5168153
 5.2802773 0.3455327 -1.7141814
 3.9909120 2.5651443 -3.6374562
 3.0664625 0.8792077 -2.1679776
 3.0669196 0.8759059 -2.1727307
 3.3984227 0.6967959 -2.7782369
 5.3100872 0.7250786 -1.3934115
 5.4305592 0.7931570 -0.9370408
 5.4562111 0.8457966 -0.7404674
 5.1406465 0.6592453 -2.2605975
 5.3541851 0.7416168 -1.1842930
 5.3617978 0.8746302 -1.1237576
 5.3189001 0.2946558 -1.5918677
 5.1800976 0.7579671 -1.8209958
 5.1782794 0.7694813 -1.8283292
 5.1818714 0.7651905 -1.8287358
 5.4619427 0.9003582 -0.7152750
 5.4689021 0.9062934 -0.7176739
 5.4746771 0.3374531 -0.9027947
 4.2676959 1.9021857 -4.1132317
 5.3709693 0.8922569 -1.1296271
 5.1556487 0.7990547 -2.0721219
 5.1935759 0.9661215 -1.7014917
 5.0601068 0.8436720 -2.4213467
 5.6210670 -0.2445312 -0.5684493
 5.1020522 1.0622059 -2.1200809
 4.1430779 1.2973002 -0.5436284
 5.4460812 1.1277854 -0.6664156
 5.3903017 1.1776267 -0.8722015
 5.3594117 0.8850309 0.6409140
 5.6252103 -0.2677389 -0.5691753
 5.3151956 -0.0762994 -1.8557403
 5.6346636 0.0139584 -0.3889457
 4.2687755 1.3288239 -0.6550633
 4.4479241 1.3748170 -0.7121362
 5.2823639 0.3818446 -1.7720820
 5.5623627 -0.0716156 -0.7639133
 5.4933681 -0.0646412 -1.0160949
 4.9849629 0.9291490 -2.7878637
 5.3049397 1.2595803 -1.1586329
 5.4793482 1.1710678 -0.5296096
 5.2989697 1.2430798 -1.1999393
 4.0045972 2.5700896 -3.6366475
 5.3895049 1.1785160 -0.8717020
 4.3489976 1.3812010 -4.1765985
 5.1120806 1.0853399 -2.1708558
 4.9943433 1.0621028 -2.6729870
 5.4734793 0.1619987 -0.9935614
 5.1184258 1.0871980 -2.1323545
 3.0264709 0.9073558 -2.2645130
 5.2151961 1.4354436 -1.4783741
 4.4955111 1.1979115 -0.1610512
 5.1156888 1.3601084 -1.9508634
 5.2093215 1.4290963 -1.4802674
 5.3493547 1.2491305 -0.9966522
 5.2236800 1.3981693 -1.4775494
 5.2053280 1.4319404 -1.4608668
 4.0953579 1.3117934 -0.6418615
 5.1313920 1.3503597 -1.9492540
 5.1250057 1.3550953 -1.9488336
 5.1248317 1.3573614 -1.9509164
 5.2598448 1.5013806 -1.1927562
 4.4402370 1.3038496 -0.5476579
 5.0303240 1.4555626 -2.3090320
 5.0904188 1.6893841 -1.6076689
 4.9974341 0.3696385 -3.0128403
 5.2645097 0.3047881 -1.8778757
 4.3741632 1.3898484 -4.1947050
 4.0768743 1.3157219 -0.6510300
 3.4051533 1.5295979 -1.4167643
 3.0680597 0.8794329 -2.1673684
 4.3414855 1.3759851 -4.1669416
 5.0889654 1.6937451 -1.8766749
 5.1392584 1.7680348 -1.6686611
 4.9969425 1.8047655 -2.1321316
 4.2752638 1.3537077 -4.1234412
 4.2708745 2.4464531 -3.7403414
 5.2688718 -0.0195529 -2.0462074
 4.2589827 1.7488030 -4.1840878
 4.7793636 1.7104007 -4.0890083
 5.2797928 -0.0116734 -1.9878477
 5.1281490 0.4775908 -2.3879995
 4.8561807 1.3338019 -3.5375786
 5.0737505 0.6620120 -2.5054958
 4.3068986 2.4692934 -3.7581015
 5.0540462 0.6454609 -2.5660589
 4.7401643 1.6850607 -4.0701895
 4.4290094 2.3903780 -3.8003263
 4.9653134 0.8238171 -2.9633605
 4.7711463 1.7016544 -4.0899138
 5.1141286 0.6526732 -2.3141477
 4.7417431 1.6906374 -4.0748830
 5.0701470 0.8061083 -2.4251945
 5.0147500 0.6292927 -2.8422611
 5.3373551 0.3167032 -1.4975405
 4.9677739 0.5082525 -3.1276281
 5.0289955 0.6577916 -2.8456500
 5.1340570 0.4591850 -2.3895154
 5.4446716 0.3826835 -1.0193992
 5.3473401 0.1753911 -1.5753294
 4.4370818 1.2317032 -0.3844142
 5.1200585 0.6616048 -2.3170385
 5.2329378 0.4710915 -1.8759006
 5.2336373 0.6528630 -1.7723923
 5.3887987 0.5309611 -1.1997824
 5.1634035 0.6904577 -2.1045659
 5.0634937 0.6494398 -2.5656490
 4.3664408 1.3839974 -4.1910348
 4.9763737 0.8313376 -2.9534678
 5.2782826 0.3794283 -1.7723372
 5.6169376 0.6764781 -0.1583445
 5.1032004 0.7935218 -2.4439132
 5.0764914 0.7979760 -2.4285355
 5.0552034 1.0665154 -2.1621549
 5.1254616 0.4651413 -2.3818352
 5.3619080 0.6332923 -1.2662091
 5.2314715 0.8281741 -1.7049179
 5.5971804 0.9102660 -0.1666171
 4.9863091 0.3547202 -3.0862679
 5.3645225 1.0067703 -1.0528176
 4.9714742 0.9343470 -2.7709460
 5.1236410 1.0728468 -2.1335790
 5.3507848 0.8410028 -1.1733236
 5.0124326 1.1717302 -2.7973442
 5.3229113 1.0877451 -1.2104846
 5.3667645 1.0173573 -1.0576578
 5.2511406 1.4839307 -1.2187588
 5.3416672 1.0028936 -1.1142011
 5.0163474 0.6198711 -2.8504109
 4.9263201 1.1591480 -2.9442577
 5.5129261 -0.3193290 -1.1157434
 4.7675505 1.6965296 -4.0842113
 4.8007593 1.6517813 -3.7621188
 4.7711711 1.8434685 -3.5804060
 4.4705896 2.4142163 -3.8174853
 5.3635602 0.2872770 -1.5193574
 5.3628902 0.1800076 -1.5107034
 5.1485081 0.9359418 -2.0094938
 5.0275025 1.0703218 -2.1782849
 4.7760539 1.8404634 -3.5701900
 5.2443919 0.5027318 -1.8380164
 4.6564012 2.5354948 -3.7644281
 4.6984687 2.4465165 -3.3766296
 4.7203999 2.4060962 -3.3412347
 5.2352896 0.6557588 -1.7726165
 5.3668427 0.4802047 -1.3292767
 4.7977676 1.5113982 -3.4884021
 4.6806335 2.3774626 -3.3264463
 4.7274384 1.6193019 -3.5280385
 4.7960944 1.8545800 -3.5762386
 4.7577686 2.4677913 -3.4732263
 3.6498730 1.0630790 -2.7229085
 5.0118766 1.6832533 -1.6305438
 5.3606358 1.2101687 -0.9907845
 5.2583122 1.2278166 -1.3603568
 5.3314185 1.0868288 -1.2142628
 4.6950760 1.6967627 -3.4201121
 4.7210388 1.9937046 -3.3962235
 4.8117232 1.8362209 -3.4794185
 4.7018456 1.7038921 -3.4095845
 4.5962558 1.0696347 -2.8436866
 4.7711306 1.7730722 -3.2939880
 4.8046012 0.8191953 -3.0549071
 5.0171647 0.3625706 -3.0108216
 4.8376265 1.5446188 -3.3037539
 4.8723583 1.5566499 -3.3054161
 5.0159898 0.3768945 -2.9484437
 4.6864462 1.7923406 -3.2401125
 4.7092104 1.8012843 -3.2317724
 4.8153925 1.8163404 -3.1370707
 5.0826864 0.6567450 -2.5064192
 4.6414471 1.0801898 -2.7852404
 4.3976307 2.3366656 -3.6829820
 4.6186333 1.7671454 -3.5831923
 4.7636051 1.1067578 -2.7734423
 4.9546127 0.5312745 -3.1201372
 3.5779996 1.0248282 -2.6672399
 4.8500948 1.3344685 -3.5375416
 4.7834082 1.6365417 -3.7698624
 4.7632627 1.1079222 -2.7749028
 4.6760440 1.0865428 -2.7858734
 4.6571751 2.5490577 -3.7647653
 4.8452053 1.5191046 -3.4885862
 4.8134141 1.6687512 -3.7625220
 4.8182993 1.6074892 -3.0840364
 4.7893157 1.7650524 -3.4361000
 4.8441334 1.1793706 -2.9018404
 4.7450671 1.7257400 -3.4012821
 4.7653770 1.8179288 -3.4851332
 4.9456248 1.0530125 -2.8595731
 4.7532649 1.7291218 -3.4035735
 4.7712250 1.8997775 -3.3652573
 4.7675319 1.8251917 -3.3855679
 4.8187633 1.7529528 -3.4034998
 4.8115563 1.5115048 -3.4893785
 4.7314286 2.0008967 -3.3939614
 4.9878407 0.9732670 -2.7684941
 4.8621197 1.6873803 -3.1987865
 4.6207271 1.5980538 -3.5931032
 4.7259421 1.7170482 -3.3957548
 4.6172824 2.1907239 -2.8179975
 4.8564558 1.6314081 -3.0804698
 4.6878991 2.4036660 -3.4486940
 4.6426892 2.1941836 -2.8197851
 4.7293386 1.9965770 -3.3943172
 4.8769131 1.5781657 -3.1519842
 4.8807411 1.3703086 -2.8311851
 4.8915243 1.3733288 -2.8293438
 4.6185994 2.3304083 -3.3221540
 4.8707829 1.6872479 -3.1972401
 4.8784199 1.5541207 -3.3069162
 4.7252893 2.0002003 -3.3945675
 4.7713451 1.9903111 -3.3138492
 4.8407674 1.8234563 -3.1407638
 4.6459494 2.1901648 -2.8254559
 4.8457274 1.6910692 -3.2116425
 4.7708240 1.6718543 -3.6008723
 4.6836576 2.1026626 -2.5319142
 4.7425218 2.2719376 -2.7749062
 4.6996031 1.7311174 -3.4573534
 4.6630893 1.6896735 -3.4319115
 4.7352529 1.4479609 -3.4839470
 4.7556190 1.5709262 -3.4127896
 4.7468572 1.5531322 -3.1999197
 5.3761215 0.3277875 -1.3824983
 5.3725300 0.1157554 -1.4795692
 5.2083549 0.7968021 -1.8274243
 5.3493762 0.7312938 -1.2325350
 5.3593540 1.0147352 -1.0620997
 4.7168484 1.8762943 -3.3160100
 4.8392859 1.7591165 -3.3160405
 4.7543693 1.8003359 -3.3387768
 4.7458596 1.7957908 -3.3438520
 4.7579203 1.9017376 -3.3006632
 4.8240595 1.5874341 -3.3577933
 3.7801583 1.0570832 -2.7480297
 4.8102503 1.7433693 -3.2425547
 4.7938552 1.6991469 -3.1377249
 4.6885133 1.8306372 -3.5502911
 4.6992826 1.7602849 -3.4994202
 5.1283078 0.4242424 -2.6268382
 5.1508670 0.4184199 -2.6169679
 5.1375179 0.1835683 -2.5483689
 4.6671114 2.0969288 -2.5358186
 5.1969643 0.3766782 -2.3703010
 5.0632372 0.8507909 -2.4326522
 5.1946135 0.6620706 -2.2507169
 5.3218427 0.0747236 -2.0025759
 5.2951970 0.2822658 -1.8939877
 5.2948775 0.2804265 -1.8941822
 5.2832036 0.3134019 -1.8440146
 5.3806033 -0.1131092 -1.5321388
 5.3760276 -0.2318954 -1.6382382
 5.2847047 0.2843006 -1.9034430
 5.3394389 0.2792845 -1.8422743
 5.2380090 0.6738611 -1.7632492
 5.3461328 0.1248508 -1.5049140
 5.2727423 0.6533478 -1.7434053
 5.2809181 0.6577610 -1.7346820
 5.1547613 0.9175788 -1.7591540
 5.4685402 -0.3355825 -1.1781378
 5.3739915 0.4952922 -1.2989199
 5.3543329 0.7021947 -1.2222152
 5.3272915 0.7296069 -1.2541845
 5.2870102 0.9652816 -1.1858586
 5.3525033 0.9303879 -1.1412185
 5.4914126 0.1260520 -0.9426115
 5.4866996 0.1209929 -0.9518662
 5.4397149 0.5450120 -0.8174115
 2.5905635 0.6226042 0.9583673
 1.8977530 0.4621450 1.3196688
 2.6455917 0.6237444 0.9654212
 4.8198767 1.6520452 -3.0927734
 4.8434067 1.1637452 -2.8939552
 4.6503625 1.8930653 -2.6986578
 4.6688609 2.0612266 -2.5883148
 5.0771823 0.6607563 -2.5098400
 5.1406174 0.6450688 -2.4773159
 5.3901372 -0.2442774 -1.6279448
 2.6473861 0.6283808 0.9654633
 4.1609550 0.9041524 0.3286617
 4.1770630 0.9186426 0.3313937
 4.7134304 1.7183586 -3.2550941
 4.8164229 0.8136116 -3.0071986
 2.6174788 0.5829914 1.0761564
 0.5749639 0.3440696 1.4605585
 2.7315524 0.5415593 1.2400620
 1.4394290 0.4073636 1.4526200
 1.4328516 0.4174829 1.5052347
 4.8424497 1.0615376 -0.0163864
 2.5356579 0.5187864 1.2132534
 3.6457870 0.7745035 0.5775369
 4.8270974 1.0535032 -0.0051463
 2.3021827 0.4947216 1.2267249
 2.3094525 0.4356928 1.3835139
 2.3071668 0.5078106 1.2622882
 2.6029217 0.5603976 1.1166581
 2.5401716 0.4970507 1.1875850
 2.7826488 0.5163469 1.1878632
 2.6901100 0.5313420 1.1540279
 2.7180834 0.5486622 1.1599778
 2.6070583 0.5526258 1.1233965
 2.3107669 0.4364362 1.3456535
 2.6178036 0.4812019 1.1731339
 2.7200856 0.5530565 1.1587881
 2.5539796 0.4808964 1.2051587
 2.3111169 0.4365299 1.3572364
 3.6258574 0.7394007 0.7178552
 3.6216838 0.7248713 0.7157248
 3.7942467 0.7788895 0.5927922
 1.4641159 0.4595877 1.4480366
 5.2852240 -0.2310283 -1.0775087
 4.8205290 0.9099331 -2.8465762
 4.7880931 1.4149847 -2.8974321
 4.5924344 1.0299405 -2.7427707
 4.8875346 0.3937375 -2.7178361
 4.9044871 0.5251371 -2.6525807
 4.9520493 0.1626153 -2.5470452
 4.8741522 0.8474609 -2.5751045
 4.9336848 0.3771482 -2.5736697
 4.8987570 0.6135934 -2.6144075
 4.9089913 0.6099495 -2.6101418
 4.8781586 0.8496561 -2.5738220
 4.9688411 0.0496001 -2.5411286
 4.9499612 0.2307359 -2.5140781
 4.9111557 0.8126246 -2.4718874
 4.9331450 0.4995250 -2.4965463
 4.9508829 0.3444976 -2.4640427
 4.9083838 0.8126248 -2.4744449
 4.9077682 0.7693630 -2.4734166
 4.9556513 0.6170949 -2.3498955
 4.9388523 0.6181401 -2.3610864
 4.9649343 0.7306885 -2.2328496
 4.9627333 0.7343965 -2.2326880
 5.0892715 0.0379773 -2.0789931
 5.0487723 0.3027179 -2.1032410
 4.9735265 0.6506687 -2.1520143
 4.9776378 0.7518874 -2.1132298
 5.0187402 0.3084359 -2.1332562
 5.0763373 -0.1142558 -2.1115870
 5.0728626 0.0571599 -2.0825160
 4.9670238 0.8998752 -2.0397670
 5.0637140 0.2413505 -1.9685065
 5.0517669 0.2418749 -1.9843227
 5.0543370 0.2513937 -1.9649979
 5.0731230 0.2358352 -1.9587237
 4.9620609 0.7422976 -1.9316787
 5.0355225 0.6012161 -1.8219604
 5.0087047 0.6050059 -1.8513449
 5.0206523 0.4474460 -1.9139880
 5.0377164 0.6006885 -1.8193471
 5.0338883 0.8488194 -1.7087144
 5.1612415 0.0534733 -1.5169272
 5.1723847 0.0492187 -1.5121931
 5.1694684 0.0516049 -1.5099248
 5.1397581 0.0627158 -1.5473434
 5.1681237 0.0504371 -1.5124602
 5.1702914 0.2710278 -1.4043040
 5.1397028 0.6453326 -1.2595524
 5.1626005 0.6563830 -1.2371572
 5.1529365 0.9474289 -1.0872897
 5.2829347 -0.2281958 -1.0812104
 5.2902579 -0.2306643 -1.0705612
 5.1439338 0.4616218 -1.3185167
 5.1298227 0.6258145 -1.2794117
 5.3909206 -0.2669296 -0.9111235
 5.1594830 0.9586278 -1.0699943
 5.2969656 -0.2292155 -1.0531987
 5.2856140 0.0437387 -0.9475514
 5.2681599 0.4626160 -0.7854231
 3.8837078 0.8306278 0.3849140
 3.8801265 0.8374554 0.4892825
 3.9854853 0.8672307 0.2903576
 3.7435546 0.7701112 0.5161800
 3.7442975 0.7729592 0.5085899
 3.8748045 0.8313541 0.5164846
 3.7485499 0.7063583 0.7285448
 4.0445065 0.8443072 0.3845185
 5.2455339 0.4566196 -0.8127280
 3.7638185 0.7163276 0.7471236
 4.3922324 0.9590980 0.1390983
 4.3819604 0.9499132 0.1396143
 3.8276277 0.7701873 0.6497899
 4.0021391 0.8629540 0.4382523
 4.3892746 0.9519322 0.1292723
 4.3866601 0.8500422 0.3417747
 4.0454364 0.8499376 0.4480107
 3.8317804 0.7689017 0.6897838
 4.4007235 0.8532512 0.3096289
 4.9584332 -0.6474093 0.6072894
 4.1371741 1.0609862 0.0709881
 3.2240853 -1.0689657 0.3510713
 5.1737332 -0.0253498 -1.5973345
 1.7570143 0.4355502 1.3524431
 5.1672754 0.1103735 -1.5382110
 1.9012296 0.4606861 1.3102288
 2.4262300 0.5363927 1.1913331
 1.9982336 0.4667076 1.3127644
 2.0577490 0.4604242 1.3003799
 1.7717379 0.4680613 1.3675964
 2.0579963 0.4705580 1.3308171
 3.5461330 0.9160671 0.3352855
 3.5386443 0.9266233 0.3275020
 3.8452773 0.9246355 0.1403679
 3.8323750 0.9447625 0.2468927
 5.2747173 0.4673511 -0.7759148
 5.4014144 -0.6174421 -0.7064341
 1.7750976 0.4651727 1.3558755
 3.6741712 0.7898026 0.6026710
 4.0274897 0.8386615 0.4760965
 3.7445781 0.7752476 0.5044838
 3.8784573 0.8415915 0.4934511
 5.3969975 -0.3740609 -0.6030243
 4.1762486 0.9189401 0.3397265
 5.2672229 0.9913839 -0.5695739
 4.1826205 0.9149649 0.3029978
 5.4067602 -0.3745386 -0.5859533
 3.7395964 0.7797434 0.5303007
 3.7503033 0.7825918 0.6160035
 4.1892729 0.9176863 0.3291727
 3.8914804 0.8454571 0.5234118
 3.7448099 0.7683071 0.4578546
 3.7429342 0.7836335 0.6099057
 3.6101522 0.7370536 0.7085194
 3.9862602 0.8700948 0.4164444
 2.4335470 0.5442834 1.2130854
 4.0542769 0.8531283 0.5371259
 4.3029079 0.9125004 0.3037114
 3.9846103 0.8779561 0.4080311
 4.2839584 0.8713130 0.3469262
 4.3177862 0.8902743 0.3356264
 4.2392573 0.8505946 0.3256960
 4.7130117 1.0210800 0.0952454
 4.3785582 0.9246954 0.2840457
 4.5213008 0.9619011 0.1523079
 4.1368270 0.8482293 0.4408050
 4.7026725 1.0087579 0.0772450
 5.3736043 0.1797929 -0.3856508
 5.3748198 0.1749553 -0.3819084
 4.1361513 0.8370025 0.4573978
 4.6133909 1.0069318 0.2774050
 4.1348357 0.8482270 0.4575345
 4.7365384 1.0344038 0.0354872
 5.4577923 0.1465473 -0.2469634
 5.4234333 -0.1918037 -0.2760545
 3.7570126 0.6979900 0.6136366
 5.4284568 -0.1852217 -0.2780148
 4.5222363 0.9263201 0.2416240
 5.3972859 -0.2097890 -0.2857606
 3.7068377 0.6707778 0.7975956
 4.6966920 0.8441358 0.4512148
 5.0837846 -1.2073940 0.6938140
 5.1389523 -1.2832512 0.8581186
 5.6224408 -1.4477764 0.1814095
 4.5712233 -1.3401841 0.9029696
 5.3323903 0.8271677 0.3258844
 5.0800591 -1.1951214 0.6633545
 3.5753775 -0.4333701 1.6596547
 4.5190945 -0.2515249 1.3910877
 3.5737717 -0.4292265 1.6311446
 4.3818173 -0.2295548 1.0685481
 4.5777907 -0.8449208 1.2240632
 4.6371574 -1.3944851 1.0049096
 4.6025820 -1.3846399 0.9690167
 4.1206951 0.4827257 1.2220557
 4.5915775 -0.8116219 1.0685453
 2.1929269 0.4036366 1.4649981
 2.8351898 0.5332801 1.1875985
 2.2023642 0.4245711 1.5314777
 3.3590987 0.0395548 0.8276774
 2.1675184 0.4276014 1.4463909
 2.1720464 0.4118768 1.3887385
 3.3735704 0.0529988 0.8434515
 2.1718912 0.4263937 1.4523251
 2.6336181 0.5077117 1.2559932
 2.4563208 0.3595765 1.3420489
 1.4601030 0.4624154 1.4644138
 2.1899540 0.4076779 1.4433448
 3.3153543 0.5584999 0.9980956
 3.3557048 0.5820990 1.0548192
 3.3499587 0.5790123 1.0411055
 2.4563856 0.3382764 1.3060068
 2.4433460 0.4073686 1.4054589
 1.6364564 -0.7515904 2.1544373
 1.7200336 -1.1574829 1.9769638
 1.7292957 -1.3491323 1.9130681
 1.6121795 -0.7728001 2.3034313
 1.6445121 0.0079838 2.2753389
 1.5978644 -0.6239241 2.3376718
 1.6367702 -0.7615162 2.2152104
 1.6745398 -0.2352402 2.2427680
 1.6123419 -0.6247421 2.3157911
 1.6634142 -0.1130296 2.2575889
 1.5662504 -0.4223281 2.2554548
 1.6358334 -0.6202566 2.2771575
 1.6879745 -0.3292459 2.2545915
 1.6504005 0.0251316 2.3141525
 1.6766934 -0.4045826 2.1990523
 1.6492082 -0.6087137 2.2295897
 1.6239355 -0.6254863 2.3037231
 1.7198874 -0.9690011 2.1002219
 5.3650608 0.8524345 0.3369826
 5.3964615 0.8522968 0.3904014
 4.2036338 0.4874584 1.1908119
 5.3573027 0.8425692 0.3453498
 4.5744767 -0.7720375 0.9692190
 4.5589972 -0.7582256 1.0901537
 5.1004777 -1.2118778 0.6884004
 5.1013494 -1.2080473 0.6739134
 4.5088987 -0.2637255 1.4171246
 3.2164309 -1.0644948 0.3425247
 4.3641376 1.1040902 -0.0558246
 3.8505826 0.9604321 0.2692865
 3.5179746 0.8574181 0.4329635
 3.5180323 0.8607897 0.4484292
 3.2967081 0.7876734 0.5422919
 4.8349118 1.0674665 -0.0343501
 3.3790863 0.7494147 0.6477836
 3.4397960 0.7609072 0.5945719
 5.4121022 -0.1949010 -0.2870196
 3.5039167 0.7545632 0.6641695
 3.3612993 -0.3412409 0.6870525
 4.4777474 0.9582551 0.2019288
 4.5825992 0.9856044 0.1659429
 3.4995685 0.7503024 0.6514788
 4.4549146 0.9770990 0.2325650
 5.4574561 -0.4614770 -0.3483568
 4.4661217 1.0039362 0.2947419
 4.7173853 1.0225195 0.1062441
 4.0019474 0.8955601 0.4436412
 4.8355465 1.0552806 0.0088984
 4.8355150 1.0448644 0.0061177
 3.6030884 0.7762756 0.6635013
 4.0363359 0.8143836 0.5217995
 3.7998285 0.7841229 0.5897970
 3.9437926 0.7837005 0.5037072
 1.3655922 0.4223884 1.4930724
 2.6129189 0.5294427 1.2063774
 2.6072586 0.5600148 1.1254487
 3.3827875 -0.3372453 0.7023681
 3.5994346 0.7733827 0.6539081
 4.0318518 0.8431867 0.4785292
 5.4504223 -0.1690755 -0.2357218
 3.8294475 0.7886163 0.6695274
 5.3437915 0.8251385 -0.2027750
 3.6181791 0.7136657 0.7527846
 3.7145801 0.6764525 0.8154052
 4.4803247 0.8109967 0.5314631
 5.4036064 0.1557474 0.0069462
 4.4760108 0.8244019 0.5140889
 5.3841591 0.9442986 0.1165038
 3.8900154 0.6462497 0.8848910
 5.3614097 0.9282997 0.0932116
 5.3953748 0.9424967 0.1426038
 5.3940468 0.9390012 0.1383193
 5.5523925 -1.0443871 0.2304613
 5.6070004 -1.0752125 0.3091931
 4.6018834 -1.2801875 0.8379124
 4.5871191 -1.0333959 0.8954890
 4.5893807 -1.0266081 0.8821679
 5.1009946 -1.2030032 0.6675863
 4.6631188 -1.1520122 1.1874547
 4.6302066 -0.7476349 0.9869142
 5.0959883 -0.9754893 0.7864073
 4.6341000 -1.0993831 1.0565243
 3.5976622 0.1488527 1.5716748
 4.5710940 -0.7668831 0.9539770
 5.0906081 -0.9697174 0.7707979
 4.2190571 0.4915515 1.1969755
 5.4563575 -1.1761895 0.5179805
 3.5943086 0.1467003 1.5819833
 5.4585171 -1.1827899 0.4997323
 5.3919744 -0.6640717 0.7655792
 5.6652479 -0.5765792 0.7014619
 3.8574073 -0.5780829 1.5881282
 4.2889466 -0.2927303 1.4700228
 5.4582415 0.4673663 0.9005191
 4.5800633 0.3627926 1.3612784
 4.5169220 0.3142832 1.3884825
 5.0617557 0.3853611 1.2474065
 4.4491482 0.3046696 1.4053464
 5.5239902 0.5144086 0.9747960
 0.6504571 0.3009658 1.7053831
 0.1878069 0.3312798 1.6493024
 0.1503014 0.3217996 1.7065593
 0.1368727 0.3065122 1.7223495
 0.1951958 0.3350415 1.6330533
 0.1889030 0.2863437 1.6992114
 0.6522475 0.2061028 1.9527335
 1.0635048 0.1065562 2.2071483
 0.9371857 0.1355861 2.0838120
 0.4734384 0.2489778 1.8658295
 -2.1307161 -1.5623136 2.0144598
 0.5167060 0.1238074 2.2490389
 -2.1379397 -1.6223766 1.9905801
 0.0239094 0.2251176 1.9102182
 3.3492045 -0.3380714 0.6768872
 2.5681055 0.5407100 1.2948229
 2.7249277 0.5602983 1.1657107
 2.6096344 0.5226113 1.1890320
 2.3095062 0.4418608 1.3766295
 2.7966115 0.5103953 1.1947929
 2.3139079 0.4500789 1.4092376
 2.1991673 0.4153241 1.5170807
 1.0155144 0.4002802 1.4754702
 2.3167536 0.4359874 1.3500251
 2.7963214 0.5132238 1.2201377
 2.6191642 0.5437084 1.1840403
 2.3039677 0.4407420 1.3738483
 2.7112353 0.5228851 1.1918287
 2.3445985 0.4459308 1.3263115
 2.4544609 0.3701979 1.3578198
 2.8055916 0.5140797 1.1964220
 2.4594438 0.3652101 1.3665290
 3.7113380 0.6856740 0.7479746
 2.4649591 0.3551369 1.3548079
 3.7693393 0.7111960 0.7230674
 3.7654359 0.7191498 0.7625057
 3.3628926 0.5873148 1.0957726
 2.4315555 0.4175459 1.3957409
 3.7545393 0.7114425 0.7511544
 3.3585501 0.5782063 1.0567307
 4.4790931 0.8124991 0.5267701
 3.3665626 0.5858451 1.1258310
 3.7808559 0.5554321 1.1115124
 5.3720174 0.8561097 0.3211301
 5.0176849 0.7626438 0.5306188
 4.5869942 -1.2717013 0.8306820
 4.5881786 -1.0227963 0.8920667
 4.2050710 0.4926433 1.1979342
 5.1107173 0.7026915 0.6542870
 5.4731736 -1.1864119 0.5371599
 5.1115103 -0.8933710 0.8071822
 5.4737573 -1.1776578 0.5372136
 5.4304566 0.2289121 0.4950729
 4.8121204 -0.6558374 0.9450799
 4.0686221 -0.3927419 1.4861468
 4.3700504 -0.3313673 1.3110592
 4.1447067 -0.3049569 1.5336217
 4.5569916 -0.1726896 1.2325031
 4.4331422 -0.2769927 1.2869483
 5.3878574 -0.5922713 0.7889234
 4.5083628 -0.3028739 1.3991352
 4.5592370 0.1180763 1.3249766
 4.2088833 -0.4390416 1.5873122
 4.4460616 -0.3436379 1.3981541
 4.5691175 0.3659321 1.4214424
 4.5355515 -0.3091201 1.4526234
 5.5409098 -0.0534475 0.9218509
 5.0494156 0.3853372 1.2261758
 5.3352842 0.4328607 1.1617820
 5.3215957 0.4285597 1.1498922
 -2.1395569 -1.5638394 2.0220182
 -2.1526556 -1.5522281 2.0102403
 -2.8328264 0.5083737 0.5771792
 -2.2042248 -1.5997330 2.0789621
 -2.5932293 -0.3489084 1.0917671
 -2.1376758 -1.2949033 2.2480519
 -2.5023370 -0.4454084 1.2706747
 -2.4829879 -0.5448455 1.2430452
 1.1621728 0.4029902 1.5393262
 1.5796334 0.4193586 1.5974416
 1.6096119 0.3717727 1.5004532
 1.6075112 0.3784110 1.5432223
 1.0301626 0.3514733 1.5533305
 1.2484105 0.3633154 1.6608688
 1.1218748 0.3485217 1.6177557
 1.1944181 0.3103007 1.6926823
 0.5343917 0.2944440 1.7622187
 0.7526233 0.2412997 1.8715707
 1.2392036 0.2897448 1.6998113
 0.7845298 0.2279258 1.8151370
 0.9104149 0.2304764 1.8379980
 0.6470542 0.2248439 1.8487828
 0.4333690 0.2610869 1.8680466
 1.3278737 0.3091069 1.8163761
 1.3387121 0.2934206 1.7539767
 0.8905612 0.2311381 1.9265553
 0.7715494 0.2403842 1.8705389
 1.7244620 -0.9648152 2.0853517
 1.7467874 -0.9513262 1.9959505
 1.6686635 0.0336929 2.2678111
 4.6072474 -1.1872364 0.8472750
 1.6834913 0.0285222 2.1749806
 1.7186753 -0.8840255 2.1431131
 1.7293431 -0.0169550 2.1264250
 1.5989262 -0.1303612 2.2552044
 1.7105775 0.0025229 2.2372484
 1.6645565 -0.4030951 2.2381818
 1.7220316 -0.0098178 2.1799533
 5.4651508 -1.1976318 0.4997647
 5.6051264 -1.0298299 0.4985964
 5.0710669 -0.6824583 0.8593491
 2.1054986 -0.0199100 2.2569258
 4.8076630 -0.6563567 0.9420756
 4.4817185 -0.4139157 1.3613464
 4.5017786 0.1517478 1.3937951
 4.2677131 -0.3088427 1.4365710
 5.6648507 -0.5796528 0.6986064
 5.6227388 -0.3286147 0.8125569
 4.5341783 0.3470226 1.4158987
 4.1975489 0.1962454 1.5363898
 4.5571251 0.3200603 1.4309891
 5.6229730 0.4608114 1.0716344
 5.6407080 0.4596535 1.0867491
 0.6341799 0.2116738 1.9240453
 0.6495564 0.2251082 1.8524536
 0.4668022 0.2529849 1.8832722
 0.6365229 0.2254600 1.8580018
 0.8525083 0.2488898 1.9886621
 0.3902368 0.2170526 1.9585962
 0.4277813 0.2615633 1.9592578
 1.1415832 0.2489216 1.8510802
 0.4680672 0.2410632 1.8859048
 0.6416002 0.2296719 1.8761928
 1.0037726 0.2431270 1.8459748
 0.3874809 0.2836162 1.9339015
 0.9127885 0.2234674 1.8950993
 1.0102043 0.2426036 1.8411093
 1.1238178 0.2631868 1.9095936
 0.9852451 0.2509369 1.8658186
 0.9929816 0.2458262 1.8480306
 0.9705893 0.2557775 1.9024024
 0.4127994 0.2702886 1.8753668
 1.1278536 0.1952071 1.9718137
 0.5941173 0.2183152 2.0050087
 0.9646072 0.2597654 1.9363538
 1.1298800 0.1935320 1.9568130
 0.8258616 0.1619868 2.0726604
 0.6148696 0.2039584 1.9495552
 0.5398456 0.1130390 2.2031407
 4.4137502 -0.3119786 1.5748240
 0.7909040 0.1798784 2.0427754
 0.9399742 0.1332546 2.0871878
 -2.1383543 -1.5790161 2.0330307
 0.4054204 0.2656806 1.8064386
 0.8002903 0.0904986 2.2408948
 0.7855840 0.0962930 2.3002796
 0.4815778 0.1304780 2.2108564
 2.3753748 -0.7142031 2.0062327
 1.2793661 0.1420871 2.2445982
 2.1215568 -0.0027875 2.2516792
 0.5233132 0.0984679 2.1133697
 0.7590812 -0.8756446 2.2780709
 1.0593117 0.1021292 2.1718986
 0.7448144 -0.8842467 2.2855535
 1.7239401 -1.1352206 2.0730045
 0.8918532 0.0329904 2.2628250
 1.6591154 -0.7654829 2.1908414
 1.3382865 -0.4505764 2.3194282
 0.7530215 -0.6974018 2.2582786
 0.7450283 -0.6147579 2.2307084
 2.5564613 -0.1423978 2.2228365
 0.5093621 0.1170101 2.1355829
 -0.0175016 -1.0059437 2.6663406
 0.9382680 0.0544430 2.3227441
 1.5935721 -0.0023529 2.2307365
 1.3562621 -0.4395594 2.2800858
 -0.0346726 -1.0114094 2.7175410
 0.8129556 -0.7342774 2.5134244
 0.1579738 -1.1049800 2.4676409
 1.3292854 -0.0785825 2.3669901
 1.9242622 0.0639992 2.2407005
 0.8197175 -0.7367866 2.4888217
 0.7658275 -0.0409061 2.6174741
 0.7989935 -0.8103753 2.5415931
 0.8072419 -0.0571427 2.4779453
 0.8866232 -0.5721685 2.4981391
 1.2936362 -0.0166189 2.4095151
 0.8177358 -0.0675236 2.4107420
 0.8694692 -0.5789824 2.5679240
 0.8365800 -0.7278844 2.4234216
 0.8643862 -0.5786311 2.5764279
 0.8094569 -0.0482326 2.5286164
 0.7362782 -0.8326617 2.7256434
 0.7215207 -0.0430127 2.6767445
 0.2122558 -0.9878834 2.6476617
 1.4765770 0.0547584 2.8685277
 0.5267142 0.1072972 2.2350039
 -1.1259484 0.3310137 1.7029302
 -0.0490918 0.1817474 2.0925696
 0.8287489 -0.7970691 2.4522040
 0.8379900 -1.1258913 2.3661461
 0.3168295 0.1167693 2.1418986
 0.7060955 -0.2847932 2.3460639
 -0.3124372 -1.0272242 2.7020898
 -2.0963805 -1.3253675 1.6324587
 -1.1200877 0.3239767 1.7005219
 -1.0710412 0.3154962 1.6626806
 0.8636835 -0.3795750 2.5562060
 0.9004659 -0.5603374 2.4587798
 -0.9275069 0.2693294 1.7360981
 0.8586515 -0.3821731 2.5417330
 -0.8612588 0.1909116 2.0242808
 0.8767854 -0.3762617 2.5149276
 -0.8710859 0.2291009 1.9016920
 -0.8215984 0.1892274 2.0028043
 -1.0243011 0.2584742 1.8955592
 -0.7954895 0.1937963 1.9896822
 -0.7892936 0.1878665 1.9774464
 -0.0791786 0.0706193 2.2025404
 -0.1241678 0.0851789 2.2481282
 0.2418659 -0.9294304 2.3268297
 -0.8324204 0.1828073 1.9929624
 -0.0870006 -0.0510154 2.4835742
 -0.1426013 -0.0427956 2.5752666
 -0.1260004 -0.0331537 2.4792390
 -0.1217674 -0.0375445 2.5219886
 -0.0802973 -0.0424572 2.4473135
 -0.0000389 -0.9934112 2.6502347
 -0.2163248 -0.0180968 2.7091200
 0.2252728 -0.9595012 2.5894301
 -0.2132558 -0.0315294 2.5386603
 -2.2130792 -1.1173106 2.0437968
 -2.1933177 -1.5488092 2.0421207
 -2.3374729 -1.3672042 2.2489052
 -2.1384399 -0.7899961 2.1493683
 -2.0143933 -0.1128086 2.5327740
 -0.7571358 -1.1022763 2.8490944
 -2.0833366 -1.2923403 2.1042526
 -2.1417270 -1.1664139 2.2238257
 -2.2155635 -0.3979481 2.5134470
 -2.1480372 -0.3747728 2.4147656
 -2.1857908 -1.5807691 2.0342126
 -0.0289365 0.1481429 1.9583211
 -2.4878399 -0.5491148 1.2413797
 -2.6525569 -0.2955159 0.9562292
 -2.6028919 -0.3424400 1.0690429
 -2.3671329 -0.5674127 1.5899712
 -1.3720460 0.0727173 2.0778720
 -2.3969760 -0.5690185 1.6123753
 -2.1271570 -1.0524135 2.2502003
 -2.4479828 -0.4970745 1.4286329
 -2.1604979 -1.2341645 2.1995211
 0.5204158 0.0880785 2.1061034
 -0.1278586 0.0255565 2.3130093
 0.4204271 0.1591586 1.7419572
 -2.5224051 -0.3790173 1.1022693
 -2.2156518 -0.7540029 2.0600059
 -2.1677880 -1.2246484 2.0218720
 0.0918966 0.2274487 1.7764686
 -1.7175912 -0.0954075 2.7419877
 -1.8977206 -1.5013781 3.0106771
 -1.4234862 0.5248328 1.3728299
 1.4097368 0.3059653 1.8185174
 -0.9303604 -1.1746571 2.9496331
 0.5464408 0.1391984 2.2237117
 -0.0277823 0.1482537 2.1046100
 0.5953347 0.1376480 2.2617912
 -2.1462321 -1.7322599 1.9552484
 -1.4314295 0.5343690 1.3318816
 -0.0721872 0.0767295 2.1987317
 -1.0476751 0.3222612 1.7162714
 -1.1561582 0.3899319 1.5485580
 -1.1995972 0.4129225 1.5751376
 -0.8315720 0.2040915 1.7929219
 0.1161923 -0.9781122 2.5628862
 -1.0818514 0.2837912 1.9333282
 -0.9017955 0.2216726 1.9804910
 -0.2937083 -1.0240579 2.6736417
 -2.2780626 -0.5619912 1.5067748
 -0.3353277 -1.0389959 2.7734377
 -2.3920009 -0.5634052 1.5712678
 -0.7846873 -1.1039928 2.9278455
 -2.3918395 -0.5650539 1.5666190
 -2.2608972 -1.0971315 2.0612214
 -0.7563249 -0.1770027 2.7474470
 -0.6562155 -1.0904700 2.9014032
 -2.3973978 -0.6004663 1.6947297
 -0.9869961 -1.7537504 2.7332871
 -2.4015324 -0.5601325 1.5802791
 -2.3800941 -0.5612856 1.5704052
 -0.6707727 -1.1094246 2.8993506
 -2.5674603 -0.6316240 1.7805135
 -0.6286047 -1.0866715 2.8562784
 -2.3465445 -0.6035097 1.6753198
 -2.5427065 -0.6102867 1.7587637
 -0.6540836 -1.0871543 2.8980398
 -2.3529310 -0.5958137 1.6772470
 -2.1168306 -0.2099241 2.4577620
 -1.0567096 -0.1961336 2.8953490
 -2.1287742 -0.7971829 2.1274450
 -2.1016207 -0.9176474 2.3146856
 -1.1457686 -0.9014563 2.9787645
 -1.9080813 -0.0912507 2.3830180
 -1.1306928 -0.9010414 2.9714606
 -1.9173504 -0.1019511 2.3746462
 -1.1593463 -0.8978748 2.9683671
 -1.0527401 -0.2008214 2.8758543
 -2.1498508 -0.9880316 2.3016691
 -2.1035883 -0.9807912 2.2734799
 -1.0333068 -0.7273501 2.8984904
 -1.3117911 -0.3670687 3.1080375
 -2.1268606 -1.0637544 2.2590032
 -2.0265155 -0.3930149 2.3555555
 -2.0315382 -0.3984633 2.3462055
 -1.9780781 -1.7927830 2.8204787
 -2.0532217 -0.9255649 2.3245769
 -2.1464717 -0.7276611 2.4392471
 -2.3060298 -1.4225672 3.3560526
 -2.1389997 -1.1759218 2.2511780
 -2.1246550 -1.1727448 2.2322376
 -1.9999018 0.0600922 2.4568365
 -1.7309579 -1.3560570 2.8013673
 -0.0488882 0.0631529 2.3707569
 -0.0095471 0.0900488 2.3209271
 -1.1670724 0.3713618 1.5618902
 -0.0211905 0.0867132 2.3087091
 0.3778445 -0.9314516 2.4037175
 -0.9780172 -1.8511142 2.6738710
 -0.6591532 -1.0813671 2.9098833
 -2.8441906 -0.8232520 0.2920900
 -0.0539409 0.1341332 2.2883725
 -0.0727450 0.0415093 2.3194206
 -2.6056471 0.8375131 0.4784597
 -2.4716203 0.4432179 0.5657380
 -2.7629106 -0.5131133 0.7039477
 -1.5616868 -0.0157350 2.4988575
 -2.7864058 -0.0539265 0.4607494
 -2.8048193 -0.1796732 0.6182815
 -2.6388750 -0.1447141 0.4751657
 -2.8380182 -0.0916545 0.4808335
 -2.6295025 0.8460298 0.4792356
 -2.8408325 -0.0443792 0.4627922
 -2.5068829 -0.3243936 0.8945812
 -2.9088507 -0.0223568 0.4671510
 -1.0351712 -1.0026243 2.8595018
 0.5845625 0.0995428 2.2424641
 -2.8109636 -0.1059350 0.5143836
 -2.9231157 -0.0292000 0.4694088
 -2.8455052 -0.1116869 0.5249215
 -2.6087101 -0.3759885 1.1356938
 -2.8148482 -0.1073808 0.5201564
 -1.4041123 0.1099914 2.1823261
 -2.5040107 -0.3496471 1.0280148
 -2.6210489 0.7636629 0.6887266
 -2.4714622 -0.4659989 1.3051821
 -2.8442695 -0.1118694 0.5154313
 -2.5046706 -0.4437132 1.2649908
 -2.6856225 -0.3225661 1.0476196
 -2.7510357 -0.0574911 0.4639511
 -0.0713672 0.0469834 2.3186231
 -2.6179857 -0.3415725 1.0806913
 -2.8733840 -0.0370185 0.4628113
 -1.0070351 -1.0708436 2.8974662
 -2.7648995 -0.2428223 0.8324519
 -2.7664962 -0.2400507 0.8344935
 -2.8093560 -0.1590056 0.6417093
 -2.7247505 -0.2551330 0.8374265
 -2.4906883 -0.4405782 1.2754540
 -1.0786726 -0.2679746 2.8909025
 -2.4751024 -0.3269943 0.8897385
 -0.0766724 0.0296933 2.4992883
 -2.6056495 -0.3468082 1.0958760
 -2.6367173 -0.3442621 1.1091878
 -2.7374058 -0.2342421 0.8246120
 -1.0989211 -0.2670760 2.9255660
 -1.0803545 -0.2660699 2.8868301
 -2.8492706 -0.2180170 0.8516615
 -2.5061650 -0.4594786 1.3363451
 -2.5000248 -0.4606503 1.3383390
 -0.0189958 0.1555443 2.1249285
 -2.7692907 -0.1510182 0.5159856
 -2.5964067 -0.3021253 0.9653937
 -2.7921228 -0.2232730 0.8403405
 -0.0233033 0.1446389 2.1166251
 -2.4617972 -0.4651212 1.3105400
 -2.5078030 -0.4579372 1.3471010
 -2.1802933 -1.7545756 1.9800485
 -1.0782139 -0.1952382 2.9213033
 -3.0511572 0.7777459 0.4311847
 -2.1888671 -1.6717483 2.0340059
 0.0394917 0.1301525 2.2012913
 -2.1860812 -1.7130556 2.0025129
 -2.6678445 -0.2809679 0.9186648
 -2.5751424 -0.3360333 0.9807157
 -2.1912923 -1.6502178 2.0346072
 -2.8297741 -0.1253520 0.5173383
 -2.7436318 -0.2544104 0.8269957
 -2.5096703 -0.4316735 1.2912319
 -2.5009491 -0.4438127 1.2678766
 -0.1057901 0.0219188 2.2533970
 -2.2805374 -0.7237108 1.9181682
 -2.7659640 -0.2845065 0.9972343
 -1.0764921 -1.1026386 3.0086303
 -2.6966126 -0.3102253 1.0204735
 -2.1593933 -1.4424210 2.1121209
 -2.4053805 -0.5747111 1.6183434
 -2.1294830 -1.4290286 2.0761876
 -2.7946696 -0.2975498 1.0480763
 -2.2156174 -1.5499986 2.0558031
 -2.1502941 -1.5849520 2.0422347
 -2.1695185 -1.2355809 2.2088368
 -2.2383740 -0.7480701 2.0092268
 -2.2479262 -0.7381926 2.0064783
 -1.3743317 -0.3967657 3.0094037
 -1.8979926 0.0396274 2.3912344
 -2.1255231 -0.9897327 2.2604725
 -2.1476507 -0.9943198 2.3150470
 -2.1517670 -1.0806810 2.2892127
 -2.2532237 -1.3536466 2.2575459
 -2.1331573 -1.0590123 2.2606809
 -2.1782825 -1.1647900 2.2407100
 -2.1179202 -0.8610156 2.3202364
 -2.3637893 -0.7366433 1.9971174
 -2.1744068 -0.7253194 1.8998041
 -1.8800224 -1.8476235 2.7624207
 -2.2443306 -0.7261338 1.9466363
 -2.1563616 -0.1976419 2.4987798
 -1.8851112 -1.3375466 2.9531670
 -1.9746261 -0.0684320 2.5497408
 -1.8049700 -1.0603446 3.0306470
 -1.5451927 -1.1446450 3.0494969
 -1.9428711 -0.0664969 2.5895185
 -1.8355469 -1.1416649 3.0361652
 -1.9311283 -0.0658292 2.5787518
 -1.7851665 -1.1019053 3.0468907
 -1.6198893 -0.3631409 3.2734876
 -1.7230847 -1.0242581 2.9380183
 2.8716493 0.7654213 0.7022680
 5.5030599 -0.4437032 -1.2262989
 5.3331847 0.9736066 -1.1832643
 5.3599901 0.2513467 -1.4108803
 5.5081444 -0.5915278 -1.1785170
 5.5598154 0.5575154 -1.1423751
 2.9412429 0.7655802 0.7944699
 5.5872140 -0.7899334 -1.0372765
 5.5159750 -0.3157099 -1.1131915
 5.3789043 1.0306772 -1.0392722
 5.4997330 -0.2657102 -1.1032745
 5.4952135 -0.0688409 -1.0172105
 0.1405686 -0.9689501 2.5492439
 -0.1251337 0.0139617 2.6618423
 -0.0134456 -0.9887882 2.5467207
 -0.0083063 -0.9865156 2.5485768
 -0.0201461 -0.9912643 2.5403748
 -1.0513388 -1.0254543 3.1093535
 0.2447240 -0.9620077 2.5124564
 -0.4162582 -1.0479460 2.7550101
 -0.3405837 -1.0499126 2.7485297
 -0.4319611 -1.0254582 2.6593432
 -0.1334880 -1.1606818 3.4355972
 -0.3650401 -1.0409510 2.7671986
 -0.9889240 -1.0246350 2.8646269
 -1.1225175 -0.3440826 2.6748290
 -1.0545522 -0.9188790 3.0828905
 -1.0649773 -0.2894478 2.9564459
 -0.9559014 -1.0970650 3.0433526
 -0.4661491 -1.1393033 3.0760419
 -1.8679587 -1.3648787 2.9945941
 -2.2211385 -0.7332662 2.0105462
 -2.1222682 -1.1520855 2.1850226
 -2.6284425 -0.3556413 1.1350781
 -2.1095235 -0.9843960 2.2742581
 -1.8678650 -1.3279965 3.0338783
 -2.7677267 -0.2539250 0.9427454
 -2.7570336 -0.3214189 1.1313381
 -1.8326385 -1.0986539 3.1483583
 -1.8786225 0.0394093 2.3619857
 -1.8086245 -1.0945710 3.0781293
 -1.8483868 -1.1636791 3.0810819
 -1.8226739 -1.1952834 3.0199461
 -1.9481317 -0.0764609 2.4873524
 -2.2229917 -0.7132294 1.9077803
 -2.4727359 -0.4990105 1.4316607
 -2.1163356 -1.1618547 2.1965210
 -1.9540555 -0.0623285 2.5301650
 -1.8622653 -0.0296108 2.4153905
 -1.9536963 -0.0256989 2.6342490
 -1.9423537 -0.0296963 2.6173704
 -2.4777606 -0.5332984 1.5003943
 -1.3933096 0.0943637 2.1437461
 -0.5025007 -1.1016828 2.9538801
 0.4844660 -0.9645289 2.5960166
 0.0297981 0.1798442 2.0278132
 -0.6168414 -1.0870888 2.8697093
 -0.0492218 0.0361010 2.4024510
 -0.6247938 -1.0932664 2.8282073
 -0.6153802 -1.1155704 2.9212942
 -2.1523879 -1.5561993 2.0110824
 -0.0039376 0.0964320 2.3371048
 -0.6134081 -1.1191298 2.9396503
 -2.1868362 -0.7412208 1.9599603
 -0.8933442 -1.2179796 3.1293144
 -2.1295018 -0.7966436 2.1026714
 -0.9495422 -1.0600245 2.8782854
 -1.5600595 -0.0163081 2.4975622
 -2.2075808 -0.8015888 2.2276993
 -2.0863292 -0.7887282 2.0547287
 -2.1857870 -0.7944736 2.1699183
 -1.0653152 -0.7882440 2.9446852
 -0.9527645 -1.1133471 3.1146593
 -0.9708509 -1.0736303 2.8615172
 -0.9756452 -1.0673916 2.8499379
 -1.0532969 -0.9057818 2.9430158
 -0.0657531 0.0360118 2.3861117
 -2.3235681 -0.8330031 2.4481201
 -1.0569532 -0.9178834 3.0607274
 -1.9397348 0.0840449 2.4786127
 -1.0260170 -0.6700803 2.9319451
 -1.7720249 0.0143081 2.5088375
 -1.0770589 -0.1730329 3.0265682
 -1.0556039 -0.7873675 2.9128075
 -1.0609463 -0.7917312 2.9888680
 -1.0691124 -0.9091929 2.9854944
 -1.0202552 -0.6716819 2.9016573
 -1.8876129 0.0453376 2.3877623
 -1.8517896 0.0201558 2.3086321
 -1.0605376 -0.8966412 2.8428624
 -1.0665150 -0.2065281 2.8732092
 -2.0426841 -0.6575624 2.2897930
 -0.1507739 0.0163209 2.4161279
 0.5607508 -0.9663493 2.6602204
 -0.0682176 0.0216048 2.4407115
 0.0659676 0.2098476 1.7506658
 0.5961339 -0.9778955 2.7200115
 -0.0426934 0.0091150 2.6634166
 -0.0210188 0.0157017 2.6977801
 0.1141029 -0.9864913 2.5454931
 0.6500918 -0.9705451 2.8197734
 -0.0200839 -0.9938249 2.5597036
 0.4453107 -0.9318756 2.4577198
 -0.0985325 -0.0558343 2.5138023
 0.5585334 -0.9532099 2.5390658
 -0.1281635 0.0181529 2.6662650
 -0.1522742 0.0016814 2.6008759
 0.1842964 -1.0095698 2.7221050
 -0.1395349 0.0018178 2.6165886
 0.2480078 -1.0126830 2.7823684
 -1.0810423 -0.2551243 2.8615539
 -1.0642730 -0.2944347 2.9534819
 -1.0561090 -0.4149161 2.9306703
 -1.0811303 -0.2629966 2.8911846
 -1.0334177 -0.5940939 2.9462767
 -1.0269510 -0.5959997 2.9227316
 -1.0610968 -0.3414862 2.9880764
 -1.0811080 -0.2639437 2.9062116
 -1.9015043 0.0537828 2.4015684
 -1.0655515 -0.2993890 2.9392514
 -1.0973332 -0.2393195 3.0702543
 -1.7821543 0.0191495 2.5313396
 -1.0200838 -0.7334854 2.9388170
 -2.2587123 -0.8130089 2.3534000
 -1.0636649 -0.3486046 2.9558547
 -2.0885959 -0.7351025 2.3074551
 -1.0915618 -0.2223665 2.9517422
 -2.0711811 -0.4194944 2.4453275
 -2.0673881 -0.4204744 2.4282932
 -2.0715353 -0.9846572 2.2310104
 -1.0893300 -0.2352733 2.9092774
 -1.9119743 -0.0643992 2.5059328
 -2.0265262 -0.0202197 2.6718071
 -1.9189234 -1.6081128 3.0165074
 -1.8981870 -1.5883269 2.9703572
 -1.9246081 -1.5285946 3.0246649
 -1.9065591 -1.5068375 3.0049727
 -1.9304117 -1.6102232 2.9626544
 -1.8990619 -1.3926061 3.0179696
 -1.9327017 -1.2370648 3.2942681
 -1.8390297 -1.0962046 3.1374679
 -1.9030861 -1.3867682 3.0736330
 -1.9045167 -1.3132427 3.1615667
 -1.9121177 -1.2307326 3.2478347
 -1.8505900 -1.4467906 2.7615173
 -1.9654847 -1.4344124 3.1898229
 -1.8726341 -1.2874426 3.0337112
 -1.9198600 -1.1885636 3.1969769
 -1.7594748 -0.7760469 3.4914682
 -1.7545909 -0.7742818 3.4460506
 0.4228106 0.0651775 1.6670336
 0.5383496 0.1312656 1.9039110
 2.1275086 1.2385424 -0.5220537
 2.4388204 0.7164477 0.8298258
 1.0309778 0.2717233 -0.3588812
 3.5746028 1.4012127 -0.8854294
 0.1443810 -0.9506345 2.3438709
 0.3718163 -0.9384863 2.2295921
 0.9651929 0.0992804 1.1379366
 0.7445920 -1.0517799 2.1975203
 0.5734223 0.0478840 1.9786661
 1.0785670 0.1229112 2.2134445
 2.6056371 1.3482616 -0.7214383
 2.4856701 1.6121076 -1.2891262
 2.7888911 1.5168955 -1.1215094
 1.2387683 0.4447390 1.4574435
 2.7954245 1.5221100 -1.1182015
 0.8184397 0.1791556 2.0443337
 1.2237000 0.4395317 1.4579078
 0.9219091 0.3104886 1.7407053
 1.8951741 -1.8171690 1.7866409
 0.8686106 0.3046495 1.7339766
 1.1714536 0.2968912 1.8286619
 2.7921140 1.5233480 -1.1305026
 0.9512709 0.3175683 1.7756485
 2.0089946 0.6775389 0.8815585
 2.0663667 0.7108608 0.8175585
 2.6729844 1.2699220 -0.4968083
 2.0101769 0.6923309 0.8785967
 1.7197587 0.5992268 1.0774895
 1.1070085 0.3295370 1.7481225
 2.6316719 -1.1213897 0.7287789
 1.1391829 0.2979764 1.7095301
 1.7882773 0.5693542 1.1747694
 1.3323518 0.4291219 1.5154917
 0.6592899 0.3981664 1.9255576
 1.8283591 -1.5224676 1.7966529
 1.9304061 -1.3270748 1.9258287
 0.0081859 0.1017895 2.3686821
 1.7884876 0.5703337 1.1705858
 -0.2672510 -1.0445491 2.7520471
 1.4200952 -0.3292475 2.2101026
 1.9065833 -1.8270350 1.8069927
 2.0608258 0.7270120 0.7643428
 1.0709562 0.6068678 1.0871445
 1.8271476 0.6070829 0.9312353
 0.9246716 0.3097410 1.7224040
 0.8154238 -1.1233447 1.9808389
 2.6152952 1.3489639 -0.7055845
 1.1175727 0.1854766 2.0574305
 1.1621088 0.1787451 2.0396359
 -0.3253583 -1.1740881 3.4605300
 1.6246383 0.5222456 1.2985240
 1.0459292 0.5257884 1.3389655
 1.5465766 0.4385806 1.3484522
 1.1090647 0.3408631 1.8300625
 1.4249190 0.3621475 1.6235601
 2.4595065 1.5992246 -1.2984160
 1.3515192 0.3526240 1.6972835
 1.3102676 0.5327623 1.2176185
 3.3728564 1.4994164 -1.0944310
 2.5442030 1.2563301 -0.4657527
 1.2961639 0.3046739 1.2852443
 2.4714036 1.2526664 -0.7060134
 1.0221653 0.5054253 1.3129400
 2.6337059 -1.2010564 0.6594489
 1.2958839 0.5179558 1.2044507
 1.3004080 0.5331726 1.1995307
 1.8918782 -1.8122939 1.7781197
 2.9450986 1.6188475 -1.1220067
 1.8167343 0.6462120 1.1333894
 1.6144781 0.4756080 1.2659559
 2.9746666 -1.2019784 0.8216781
 1.8191561 0.4641669 1.4061074
 2.3931839 0.4767988 1.3782814
 1.7275175 -0.0951570 2.5379722
 3.8000798 0.7268558 1.1176406
 2.6726427 -0.7553238 0.9717546
 1.8081483 -0.5547586 2.2397716
 1.8778067 -0.2778929 2.2365947
 2.6951950 -1.0522076 0.7619306
 1.6158069 0.4690784 1.4165425
 1.0300335 0.2633360 -0.3627471
 3.2627873 1.2797184 -0.5206394
 2.8326254 0.9969217 0.2803059
 2.7679060 -1.7071081 1.5926766
 2.9751961 1.0207922 -0.3728030
 2.5552073 0.5310190 1.3455799
 2.4297879 0.4964361 1.4223371
 3.0935197 1.6165502 -1.7198392
 3.2796392 1.0903482 -0.0510026
 2.8052323 -1.3628706 1.7416980
 2.8967409 -1.6545594 1.6410608
 2.6448798 -1.1140068 0.7265654
 2.2640519 0.8269042 0.5655612
 1.8745507 -1.8079534 1.7673891
 1.9249578 -1.7552171 1.7819222
 1.9130790 -1.3950026 1.8810953
 1.8189963 0.4668466 1.4402815
 2.2054019 1.1815504 -0.3328285
 2.3066471 0.8447504 0.5831509
 2.5935819 1.1992954 -0.3889293
 2.2079422 -1.4143021 2.2143810
 1.8524921 -0.2984815 2.7739353
 2.5834594 -1.2066888 0.6459586
 0.6461319 0.0953516 2.3286452
 1.5493841 0.4317074 1.4881028
 1.7971493 0.5711150 1.1431687
 2.1353734 0.6372580 1.0488909
 1.8723154 0.6979416 1.1678954
 1.0164632 0.1941798 2.1934085
 0.8186522 -0.8539549 2.2794902
 1.2179731 0.2697128 1.8914093
 1.3987194 0.3045501 1.8073148
 1.3315448 0.2619375 1.7611636
 2.2114496 0.6286606 1.0269091
 1.2256594 0.2716288 1.8973726
 2.2057464 0.6353996 1.0360826
 1.1687387 0.1926253 2.0548124
 1.4109415 0.2731456 1.8921456
 1.7645311 0.0701087 2.1919343
 2.4276876 0.5094380 1.3875451
 1.8596559 -1.4647020 1.8688831
 2.7926931 0.6222838 0.9441519
 1.6803609 -0.3710856 2.2629831
 1.4624803 0.0548788 2.3649735
 1.8069983 -0.3637513 2.2313726
 3.1065125 0.6266302 1.2151352
 1.8587347 -0.1577519 2.2457120
 1.8609265 -0.9248098 2.0308182
 3.0346985 0.5983083 1.1912123
 2.8558269 0.4367760 1.3548224
 3.5174539 -1.5338758 1.2513837
 2.7924979 -1.6467949 1.5639924
 2.7745457 -1.6361639 1.5585259
 2.3610771 0.7449353 0.7578511
 1.8484194 -0.0384063 2.2594967
 1.7267828 0.0946277 2.3248770
 2.2541406 0.7248911 0.8164952
 3.2529187 1.1396419 -0.3892289
 2.9466808 1.2172219 -0.2165482
 2.8225229 0.7706820 0.6879433
 3.5164821 1.5740476 -1.1093466
 2.5967677 1.3251050 -0.6641070
 3.2612617 1.2878933 -0.5196634
 3.3876879 1.2147759 -0.3702933
 2.8685818 -1.6732014 1.6297060
 3.4103291 1.2311352 -0.3904157
 3.4177599 1.2337177 -0.3815132
 2.4383337 1.5774081 -1.2942250
 2.7764611 0.8171576 0.6146460
 3.5694985 -1.6357963 1.4933454
 3.4102995 1.2307137 -0.3788279
 2.6734366 0.9416482 0.3002687
 3.4134002 1.2347374 -0.3952146
 3.3515031 1.4350017 -0.8530741
 2.7840264 -1.6445789 1.5642648
 3.5704734 -1.0921477 0.3032460
 1.0368124 0.2710449 -0.3622920
 3.0923994 1.6350615 -1.6802098
 3.3369625 1.7818580 -1.7415187
 2.6608794 1.2680111 -0.5013921
 1.9639287 0.6439614 0.2534472
 2.7528386 1.0904490 0.0814261
 2.8494532 1.1602888 -0.2326838
 4.3792229 1.6324464 -1.5524538
 3.1999452 1.6930287 -1.7112817
 1.6726207 0.6860104 -0.0908390
 3.3458290 1.4317540 -0.8580226
 1.9150486 1.1615448 -0.2416817
 2.1330614 1.2446851 -0.5170781
 2.2222648 1.3090370 -0.4903615
 1.3132974 0.3211135 1.7184862
 1.8883584 -1.8052696 1.7739431
 1.6535060 0.7105621 -0.1628038
 3.0979438 1.6197517 -1.7146120
 3.2658091 1.7293981 -1.7343373
 2.6116238 1.5461788 -1.1944789
 1.9145077 0.6304398 1.1216274
 1.6371247 0.6887189 -0.1916661
 2.1701584 0.7097054 0.7532685
 2.2567255 1.1182638 -0.1392405
 2.6384616 -1.1054893 0.7114717
 2.8467197 1.5571321 -1.1108389
 1.5803618 0.6951301 -0.1345800
 1.8623500 0.6175809 1.0642281
 2.0579982 0.7138887 0.8534985
 2.6659677 1.0408751 0.0292377
 2.7868447 1.1204758 -0.2703257
 2.6437962 0.9245934 0.2751549
 1.6484323 0.6982951 -0.1790999
 2.2303579 0.5186317 1.3659725
 1.3204992 0.4292475 1.5244672
 2.7500479 1.0642107 -0.0580820
 3.1239750 1.4110204 -1.2892895
 3.3403056 1.4832299 -1.0929496
 3.2227001 1.1486740 -0.2997490
 2.6089315 1.3457946 -0.7144461
 3.4507720 1.1726450 -0.3317824
 1.8666946 0.6044518 1.0394012
 2.1961975 0.7902194 0.7654105
 2.1388545 0.7957435 0.7327083
 5.3793511 0.0577196 -1.3357753
 2.0665746 0.7266371 0.9375104
 2.1871910 0.7728729 0.6982655
 2.8889935 0.7698895 0.7026175
 5.3936205 -0.0986280 -1.3813310
 5.4882379 -0.0796738 -1.2130836
 5.5348668 -0.6671392 -1.2605610
 2.8772426 0.7695304 0.7121781
 5.4180899 0.0586381 -1.3226745
 2.5576479 0.7757214 0.7028759
 5.4781671 -0.6341316 -1.3149691
 4.2774973 1.0457906 0.3269756
 3.8692870 1.3440260 -0.7629958
 2.2256398 0.6512281 0.9782408
 2.2645414 1.1271106 -0.1304644
 1.5538961 0.4253561 1.4992409
 2.2510316 1.1197295 -0.1620461
 1.5336277 0.4216612 1.4588474
 2.6193917 1.3561540 -0.7152336
 2.8860807 1.4720030 -1.6543257
 2.5550106 1.3086997 -0.6479176
 2.6814482 1.2821263 -0.4983509
 2.0558066 0.7108645 0.8473202
 2.5804160 1.2113547 -0.3627921
 1.9474916 0.5092082 1.2370325
 2.6494789 -1.1067297 0.7195392
 4.1208086 1.2534415 -0.3871562
 2.9650283 1.4890680 -1.0299202
 5.3832932 0.2818637 -1.3852273
 2.6271052 0.9954219 0.0719204
 2.6387987 1.0232627 0.0801973
 2.7408342 1.0938659 -0.0767637
 2.5620337 0.8724676 0.4992424
 2.7326243 1.0996271 -0.0441584
 2.5621336 0.7889473 0.6883942
 2.5926435 0.5885539 1.1776752
 3.4386766 1.5454900 -1.0666804
 3.3792188 1.4955299 -1.0994899
 3.5874505 1.6373563 -1.0406547
 3.4342732 1.3013967 -0.5329849
 2.4113159 0.4923730 1.3838346
 1.6230159 0.6789311 -0.1978142
 5.2913828 0.5104666 -1.2496283
 3.1340570 1.6488096 -1.7131093
 2.7106063 -1.3305161 1.6647080
 2.5297647 0.9639783 -0.1102485
 2.9084127 0.8398889 0.6066756
 3.3636301 1.1209220 -0.1373931
 2.9054768 0.8442308 0.6021622
 1.8840761 0.5882136 0.1625234
 5.0240951 -0.1463292 -2.6178591
 3.3380494 1.0832039 0.0452199
 3.6803751 1.4519776 -0.9197567
 5.0768399 -0.2356927 -2.6669297
 2.8340416 0.6173311 0.9307168
 2.1456513 1.0317997 0.0692132
 4.9902248 -0.2343861 -2.6494281
 2.6129296 -0.5138996 1.9134138
 4.8837061 0.3578584 -2.3736877
 1.7467728 0.6032587 0.0727923
 2.7114849 -0.6786780 1.9459246
 2.2790756 0.8365303 0.6097082
 3.5957081 1.4157947 -0.8870975
 3.3633609 1.5100081 -1.0670786
 2.1363313 0.7968104 0.7160022
 2.5839033 0.9462810 0.3223632
 3.0071170 1.2070081 -0.3428865
 2.7025669 -1.2688960 0.7612240
 2.6673985 0.9389527 0.3013259
 3.1331346 1.2749773 -0.2923201
 2.2078226 0.6505814 1.0377026
 2.7353821 0.9494171 0.2534276
 2.4833035 0.7312961 0.8670430
 3.4517608 1.5311006 -1.1301352
 2.8386006 0.9088153 0.3654512
 2.5891654 0.7956426 0.7028356
 3.2808492 1.1848497 -0.2795028
 3.7117829 1.4690210 -0.9006315
 2.9388428 0.9591787 0.2980870
 5.3795400 0.5271406 -1.2321019
 5.2350163 -0.2878971 -2.2962828
 5.3164678 -0.2529613 -2.1464360
 3.5740261 1.2703427 -0.5043592
 3.2896791 1.0912033 -0.0145326
 3.5929642 1.2718766 -0.4910818
 3.2975740 1.0990680 -0.0293614
 5.3432417 -0.2354038 -2.1462266
 4.3459387 1.6144356 -1.5447309
 3.4198830 1.5052862 -1.1513478
 5.2055669 0.7201850 -2.1041760
 5.5253386 -0.4525879 -1.2205459
 5.0306802 1.5657588 -1.9084706
 2.8229313 -1.6417909 1.5673085
 5.1650686 1.0025047 -1.9717616
 5.5456991 -0.4624020 -1.2071712
 4.1183591 1.1923343 -0.2958269
 2.3932161 0.9762734 0.2864026
 1.7975252 0.5651228 1.1737142
 3.4408665 1.1828068 -0.2835163
