# .PCD v0.7 - Point Cloud Data file format
VERSION 0.7
FIELDS x y z
SIZE 4 4 4
TYPE F F F
COUNT 1 1 1
WIDTH 1496
HEIGHT 1
VIEWPOINT 0 0 0 1 0 0 0
POINTS 1496
DATA ascii
0.20505799 0.48106551 -1.0663025
-0.097461797 0.42065671 -0.8892042
-0.076565102 0.76650399 -0.90813851
0.16706251 0.44488731 -0.97475308
-0.065639399 0.77371848 -0.879619
0.024168 0.65425158 -1.5031276
-0.076357797 0.76735258 -0.90533638
-0.1142884 0.38800439 -0.80835837
-0.1189348 0.51439399 -0.82497442
-0.1201497 0.35990101 -0.72952968
-0.1247684 0.35533741 -0.71750259
-0.1513572 0.32880801 -0.65582621
-0.0906749 0.97833788 -0.65971041
-0.017675299 0.32588229 -0.63921839
-0.1264201 0.69629568 -0.55688071
-0.1260695 0.69680291 -0.55237401
-0.128271 0.69430399 -0.56044757
-0.1868955 0.2561287 -0.46388829
-0.26079521 0.1024878 -0.051826
-0.25946659 0.1005398 -0.048299901
-0.211946 0.52807242 0.0734988
-0.2366185 0.40691251 0.0508545
-0.2461153 0.65431201 0.098048598
-0.2128074 0.52193528 0.089033403
-0.28012401 0.87898159 0.1523082
-1.2533264 0.49568039 0.001557
-1.0624439 0.50369728 1.121103
-1.2526056 0.55988479 1.0407088
-2.2320809 -1.0573498 1.0057832
0.98010027 -0.27718049 1.7489455
-2.321064 -1.2555707 1.0808352
0.98267448 -0.29437909 1.7792497
-1.2848653 0.5446654 1.1820638
-2.3392177 -1.2593702 1.3660799
-0.76717818 0.2872577 1.6995095
-2.2344668 -1.1872979 1.1897675
0.0828012 0.61482382 -1.4116917
-0.00059399998 0.60773838 -1.3848108
-0.0072005 0.60345882 -1.3832225
0.0738478 0.61083651 -1.4187825
0.1702501 0.60863131 -1.3941984
-0.0031540999 0.60465819 -1.3695916
0.27315599 0.61244589 -1.4090084
-0.0019695 0.59073848 -1.3559226
-0.0158149 0.57211202 -1.2958729
-0.0556449 0.61943322 -1.1027778
0.0464212 0.48606011 -1.0636524
-0.064345904 0.47070089 -1.0493879
0.1771616 0.4404102 -0.96376079
-1.2166307 0.91709489 -0.43691331
-1.3257047 0.29840109 -0.3503398
0.83512688 0.31536481 -0.55611807
-0.3580448 1.1042784 -0.29899839
-1.0932685 0.82237279 -0.1742083
-1.2003906 0.47196469 -0.1869601
-1.044758 0.78772819 -0.2011372
-1.0342517 0.71884078 0.064172097
-0.2771011 0.83608979 0.1632084
-0.2316047 0.92846131 0.29869401
-2.0210767 -0.75486487 1.6963559
-0.0021796001 0.80694771 -1.4537355
-0.0291628 0.55714971 -1.284067
-0.058016598 0.47878081 -1.0424609
-0.0074502002 0.86956239 -1.1438274
-0.053358998 0.48382199 -1.0251149
-0.088513099 0.44929659 -0.97822082
-0.040636599 0.80601048 -1.012262
-0.062504098 0.57083189 -0.95744097
0.3046599 0.5619455 -1.2611898
0.033921 0.68496758 -1.5764527
-0.1140328 0.3569856 -0.67663163
0.010666 0.63866228 -1.4749799
-0.1782022 0.25848371 -0.44050321
-0.2097231 0.2073956 -0.29023641
-0.24697191 0.72423238 0.085801601
-0.2366118 0.74745482 0.1942521
-0.26067221 0.81059188 0.22419409
-0.26283979 0.80169117 0.20653901
-0.2229643 0.66540688 0.045477401
-0.26075751 0.80718368 0.2350444
-0.26566541 0.79940772 0.2169874
-0.19807941 0.66434407 0.1919831
0.40932769 0.57832801 -0.58954322
0.59868991 0.63111877 -0.74626338
1.7408264 -1.2975982 1.7499149
1.7346164 -1.2672148 1.7235173
1.7074907 -1.2373281 1.6748315
2.5506163 -0.87775803 0.60551578
3.1515591 -1.2212994 1.0750623
2.5683966 -0.88364393 0.61583239
3.1978784 1.4020425 -0.4385443
3.5260503 1.5944939 -0.94164288
2.5063052 -0.85940498 0.58788949
1.8566531 -0.96503782 1.9389054
1.760245 -0.43865979 2.1175869
1.7288498 -0.4263595 2.036021
3.5570734 1.5932688 -0.91236329
1.4592288 -0.29397479 1.5546515
1.7548119 -0.27372339 2.1269574
1.6773376 -0.40606141 1.9838672
3.4974215 1.4191202 -0.59622121
2.6029537 -0.60269642 0.71341199
3.3234551 1.3967712 -0.60783952
1.6897038 -0.43800941 2.0907526
3.5545497 1.5929358 -0.9230957
3.3617606 1.4073592 -0.60610187
1.6562805 -0.0086326003 1.8228319
3.5396781 1.424879 -0.60208827
3.4605191 1.4469616 -0.5352456
3.5498569 1.3777647 -0.43266201
3.5750828 1.3908581 -0.45141089
3.7521954 1.4932425 -0.56877202
3.4799449 1.4165388 -0.61315751
3.3909323 1.3434999 -0.4959954
3.7602503 1.4203207 -0.3690913
2.0327156 -0.4726744 2.3771861
3.4546456 1.3547608 -0.47081321
3.4444366 1.3042362 -0.2071563
3.7572269 1.4480704 -0.55688971
3.5553157 1.3353949 -0.1738258
3.5540354 1.3227535 -0.38696659
3.1987405 1.0850415 0.059686702
3.4343507 1.1371592 0.16293859
3.5727837 1.3265116 -0.38311139
3.4736784 1.3231078 -0.2037351
2.681489 -1.4370402 1.496986
2.5384088 0.3481957 1.9205698
2.6813734 -1.4397006 1.4961303
3.7375343 0.98937529 0.64713818
2.8399742 -1.5627674 1.6670713
3.4741707 1.3294938 -0.2077821
-0.0545642 0.50482082 -1.1560856
-0.040769499 0.50722402 -1.1553454
-0.060592499 0.6566177 -1.1282227
-0.094704002 0.42046919 -0.94637549
-0.1175173 0.50337291 -0.85953808
1.823992 -0.94182652 1.9983284
1.8605955 -0.9511975 2.0456152
-0.046312898 0.79765183 -1.0308661
1.919782 -0.71605551 2.2542496
2.4397602 -0.27859321 1.7574149
1.5531065 -0.075571902 2.1100719
3.4389901 1.2958695 -0.37808901
1.5068244 -0.1042009 2.1727986
1.8117616 -1.0582771 1.8105853
2.6856692 -1.2448492 1.6859318
3.3652983 1.1138625 0.1929488
0.46881881 0.55848479 -0.54343069
2.9021497 1.2876797 -0.1245607
0.62614208 0.63142878 -0.74305648
3.5279853 1.2785219 -0.0483656
1.8663832 -1.1005193 1.9077854
3.3230977 1.3202918 -0.3793315
1.6609992 -0.066902503 2.0758486
0.46587101 0.49540979 -0.37842241
3.0080795 1.3610946 -0.30439949
3.3694127 1.2458363 -0.23476671
0.53376758 0.59835458 -0.6464234
0.38170111 0.5399316 -0.49150929
3.3816979 1.214896 -0.039953001
0.67041951 0.60083741 -0.66445202
1.7311931 -0.1301378 2.4085479
1.4441223 -0.033895899 2.2076511
1.685999 -0.051927298 2.1231844
3.1211321 1.3797702 -0.41678619
0.35619661 0.55208611 -0.50679719
0.53654587 0.59772098 -0.64593518
0.7494508 0.45184049 -0.27839309
0.54260421 0.52662772 -0.46771431
0.6052646 0.6349749 -0.73804653
1.8298743 -1.1461946 1.8636695
3.1471334 1.2811017 -0.41430739
1.8251898 -0.6437611 1.9742565
1.8494403 -0.65541208 2.0307024
2.5355434 -1.0855089 1.5635949
2.6102135 -1.1306958 1.6461352
2.1405354 -0.1783434 1.3159084
5.1442924 0.78277087 -1.8146428
2.1855581 -0.1276897 1.424965
2.6029096 -0.35638541 1.8576351
0.48590481 0.55599791 -0.53112119
3.261337 1.3073744 -0.39396849
2.6441538 -0.55874568 0.91604191
0.48894739 0.55492729 -0.52494079
0.52729708 0.57292283 -0.57084799
0.60455769 0.63496882 -0.73800278
1.9380149 -0.72434002 2.2116168
0.61621809 0.4746471 -0.33363909
1.8519183 -0.068378702 2.2105358
3.8459435 1.5738915 -0.93492383
2.6620302 -0.38831589 1.9119459
2.5966952 -0.46715471 1.8686916
0.54526597 0.67123121 -0.83696872
0.37937251 0.57341337 -0.56716061
0.68044692 0.66496038 -0.82191569
0.53579479 0.59774631 -0.64535981
0.6814732 0.66610748 -0.8241474
0.67658782 0.6657967 -0.82681108
0.52192861 0.57192189 -0.58002877
0.52153772 0.57342738 -0.57912183
0.5923267 0.61144298 -0.67167377
0.076566897 0.4556748 1.6875945
2.7422686 1.2496916 -0.1179347
0.42855111 -0.43337101 1.851831
0.7384569 -0.44300619 1.8650501
0.7676518 -0.4946613 2.0799122
0.43864521 -0.4783802 2.0348673
0.45599359 -0.55096489 2.3262227
0.84122831 -1.3137786 1.6217948
0.84572828 -1.3329463 1.6440216
0.79300278 -0.55117983 1.8027468
2.2846186 0.76115721 1.2892979
3.458952 1.0501999 0.2082167
0.70147789 -0.45760429 1.9197187
2.1259718 0.77189863 1.0961566
0.78120071 -0.54255712 1.7669668
0.82107109 -0.47701901 1.941576
3.5096257 1.0649059 0.30835131
0.77749181 -0.4996216 2.0831916
0.85504699 0.36683831 2.105607
0.87739611 0.33468169 2.175822
0.82612562 -0.6402154 2.0452209
2.6988249 -0.011451 0.98662102
3.7030835 0.99578917 0.63055992
2.6425726 -0.001773 0.9389413
0.95843798 -0.17544781 2.2507551
3.1699295 0.86564708 1.1671288
4.0342989 0.99495357 0.4186947
3.8265398 0.81710589 1.1004246
4.0507226 -0.41594931 0.69776368
3.0232317 0.82242519 1.0340551
3.0653517 0.83298141 1.0545496
3.5907619 0.96965557 0.60801148
2.9848022 0.8094337 1.0122402
0.60809261 0.57701778 -0.59545839
0.57784301 0.51707071 -0.44738409
0.72258008 0.51379359 -0.42897949
2.9007363 1.3260109 -0.34078479
3.1569283 1.3778698 -0.62174821
1.7345613 -1.3908203 1.674026
1.8416241 -1.2961875 1.9085819
1.5094193 -0.092659399 2.1777275
3.3451054 1.411238 -0.55245489
1.8080872 -1.124438 1.7855688
2.5874727 -0.59781522 0.70493752
3.4522033 1.0643303 0.33782291
2.5003543 -0.47815999 0.77174878
1.5767618 -0.086486898 2.1801167
1.7776176 -0.88727361 1.7757219
1.8925682 -0.98506379 1.9726583
1.8270265 0.1114006 2.1588373
3.5317643 1.3426167 -0.2001501
3.5496035 1.3146205 -0.3828204
3.3518598 1.2698202 -0.3985568
1.8487936 -1.0843273 1.8736745
1.722562 0.038156401 2.2304897
3.7108953 1.456737 -0.38344881
3.5644531 1.2539357 -7.17e-05
3.5198522 1.3166673 -0.35793671
2.5848222 -1.3471837 1.6629683
3.6178985 1.0958607 0.26231
3.5757668 1.0851216 0.24728221
2.6516178 -1.1497391 1.6437162
2.5948818 -1.119463 1.5878586
4.1540279 1.3734971 -0.69006193
2.5390303 -1.3041215 1.3918211
2.6038766 0.3582252 2.0081384
4.3236117 1.4150559 -0.67626458
1.693792 -0.0075212 2.0170693
4.2251768 1.3862705 -0.68575519
2.6821644 -0.40267321 1.9497958
2.3893764 -0.41446099 1.5890006
4.1298776 1.3876458 -0.70518571
2.7262845 -0.3415888 2.0762851
3.7269132 0.98896432 0.6529873
3.7009962 0.98672962 0.62903333
1.7328495 -0.266561 2.0973275
4.3373227 1.3099792 -0.5520786
2.6290107 0.35603431 2.0326548
4.3138909 1.4237555 -0.67350543
4.0800242 1.3187785 -0.4931179
2.635011 -1.4003506 1.4290229
4.3062696 1.3606529 -0.4383013
3.4663584 0.76217991 0.88131309
4.427372 1.3385347 -0.52863753
3.3730702 0.76517111 0.82216829
4.2948918 1.245985 -0.22705761
0.5505895 0.55217922 -0.53588092
0.55256838 0.55339628 -0.53207088
0.60652608 0.56606799 -0.56604677
0.60040301 0.56517309 -0.5698728
0.59648389 0.45547801 -0.27692479
0.75324309 0.44726059 -0.2763994
3.0285859 1.3644406 -0.3018955
2.7328174 1.2243246 -0.0224525
2.8507383 1.2339995 -0.040115401
0.80728507 -0.28589621 1.9654452
0.81976271 -0.61401278 2.0181885
0.82547897 -0.62232172 2.0544739
0.82883561 -0.63789612 2.0619011
0.90080923 -0.1227644 2.188257
0.94613051 -0.1669493 2.2033541
0.97833067 -0.16353481 2.2272654
2.5305264 -0.80167162 0.72412717
0.94765842 -0.1815137 2.2693808
0.93353301 -0.17279211 2.2080266
1.6769059 -1.1690553 1.6971729
3.4917221 1.1700615 0.18686309
1.765613 -1.5108354 1.6575872
3.4552996 1.1524144 0.17215329
3.4412663 1.0461274 0.3473199
2.4499183 0.72166932 1.3283969
1.8406048 -0.83012807 1.9399391
3.7977467 1.2356724 0.34746581
1.7098964 -0.41173229 2.0123615
1.6443183 -0.2674869 2.0128617
2.4423959 0.72458023 1.3020036
2.4776957 0.72728121 1.3536843
1.8444496 -0.8301475 1.9437337
1.807629 -0.30439001 2.2932353
2.5933137 0.7424075 1.4731876
1.6424321 -0.0616231 2.0259874
1.7279103 -0.42601651 2.0590258
1.729811 -0.27088699 2.0981655
3.5934324 1.096123 0.2459867
1.9280434 -0.4378207 2.2009873
3.9870627 1.1582048 0.545506
3.6826534 1.0975703 0.39221299
2.2809689 -0.61610931 1.8285859
2.2671063 -0.59767193 1.7930509
4.4390812 1.2945292 -0.1720413
4.4660234 1.3086976 -0.1841301
3.6910832 0.77516401 0.99807888
2.6647923 -0.3945232 1.9150575
4.5829291 1.2274258 -0.164278
3.7192662 0.77366608 1.0068884
2.9487686 0.81298149 1.0276159
1.5330611 -0.3453432 1.7333732
2.8592 0.74500448 0.94126892
3.0561655 0.8245151 1.1456938
1.6105003 0.031944599 1.721292
2.6214676 0.7620573 1.3803744
1.5267931 0.0126653 1.9110522
1.5811336 -0.1096426 2.5212524
1.6996248 -0.40975979 1.9749218
2.7713301 0.66499728 1.263653
1.7250788 -0.41907811 1.997483
4.1418028 0.9963606 0.42507219
2.7911565 0.58130479 1.2546691
2.6576078 0.63277447 1.1598065
3.9521551 -0.38242671 0.65208542
3.5789735 0.77256513 0.94835228
2.6798553 0.76022631 1.5572771
4.3509393 1.1016314 0.41328329
4.3674884 1.0324823 0.46848601
1.8166045 0.1055151 2.1509812
0.35898811 0.4127638 1.9059371
2.5641575 0.74281138 1.4283384
2.3099566 -0.43659341 1.5259242
4.279779 0.9200868 0.88204181
0.98091418 -0.55612153 2.2885926
0.32134941 0.50766093 -0.32993409
0.36698079 0.57598633 -0.46966499
0.65583807 0.56169063 -0.4553766
1.7096591 0.82255173 0.8756026
0.36294669 0.4906657 -0.2983489
1.3826427 -0.25583991 1.9722046
0.3671222 0.57540292 -0.46978149
0.62555468 0.60286802 -0.53524131
0.4780325 0.61253369 -0.55105257
2.0467377 0.93232661 0.65642488
0.54576403 0.54723668 -0.42687789
2.0599518 0.92692369 0.84415948
2.1927536 0.88684922 0.94214863
2.1732252 1.0088507 0.43259799
1.8902349 0.74257898 1.3401762
2.5793943 0.9894762 0.57420993
2.334352 0.89799911 0.98981702
2.6255784 1.0060703 0.60758442
2.4161844 0.92914587 0.49502891
3.5939507 1.1917833 0.18638571
2.1412821 0.83166128 1.2699068
0.50230259 0.51143879 -0.35486519
2.8570979 0.95758712 0.56963968
0.46855459 0.58181238 -0.4923141
0.44779691 0.4819735 -0.2877894
2.7070956 0.91094118 0.4891468
0.91594678 0.43088639 1.8178709
0.71220332 0.58052528 -0.48732781
2.9762383 0.92126709 0.68519008
2.6656926 0.91462308 1.5596147
2.7247972 0.81404889 1.1366374
3.0461922 0.916632 0.78699672
2.8349698 0.90873653 0.93938601
3.7482624 0.80532962 1.0485038
3.0902958 0.82609588 1.0307714
0.32162851 0.50825322 -0.33110669
0.52003908 0.63078761 -0.58768117
0.3625949 0.4903442 -0.29881981
2.5671418 -0.8902536 0.49526969
1.7709451 -0.18900549 2.0517466
0.62297553 0.60181499 -0.5384388
2.5322158 -0.2084793 1.8675498
0.53737009 0.54365379 -0.41813371
0.50679612 0.57359087 -0.48175031
3.761138 -0.29679319 0.52140349
0.50167352 0.51121128 -0.35542881
0.3438994 0.54286277 -0.40360111
3.9007373 -0.3232328 0.57474118
0.45230359 0.54500419 -0.42031959
0.44367099 0.50057912 -0.3205457
1.9633671 -0.81180263 1.867768
0.43144071 0.56195831 -0.4461619
1.8167825 -1.3047625 1.6397779
0.63196683 0.51153868 -0.36386359
0.50899661 0.5751971 -0.4809818
0.464937 0.58234382 -0.49351081
0.48009959 0.55754888 -0.449301
1.13533 0.52126569 1.5259982
0.31629121 0.57252681 -0.46586499
2.6103716 -0.56360388 0.75563198
0.6956479 0.61901492 -0.56997073
0.85679352 -0.41625929 2.0648735
0.41061661 0.5324533 -0.39439601
0.58105981 0.61963522 -0.56996852
2.6051431 0.97416931 0.67284691
1.1128216 -1.1128888 1.8346524
0.40250209 0.47604221 -0.26228791
0.8098653 -0.63699901 1.8864659
0.46922711 0.3045949 1.8969535
2.663058 -0.054589801 0.90529382
0.50324649 0.51177311 -0.35216939
1.6830566 0.62122458 1.0405825
0.37741491 0.5352329 -0.388087
0.53437811 0.5859319 -0.50452781
0.52920818 0.52429742 -0.3873404
0.58202952 0.62050557 -0.56981683
0.38262129 0.55188322 -0.42854339
0.34147459 0.57196379 -0.4605523
0.89250833 -0.3790966 2.1302247
0.37850529 0.52446091 -0.3727006
0.66298562 0.54380941 -0.4206014
0.62313962 0.6018424 -0.53815079
0.4949733 0.54430211 -0.41753709
0.48606309 0.55784899 -0.4440608
2.6072996 0.98295939 0.6476059
2.6272559 0.98919493 0.65663087
0.50275308 0.51135838 -0.35459349
0.83913141 -1.2274854 1.5681329
0.7094717 -0.64664561 1.8039507
0.66411322 0.54352468 -0.41848451
0.4651444 0.52704829 -0.4337565
0.84719181 -1.258996 1.6172538
0.39483041 0.57078677 -0.47074619
2.9001162 0.96132231 0.65794098
0.45216179 0.54198861 -0.4176338
0.54818839 0.55716169 -0.44680461
0.52862322 0.27155921 1.980055
1.3147312 -0.64500642 1.9986525
0.4235462 0.55399418 -0.43135259
0.36261329 0.53031439 -0.37862369
0.81116432 0.3637453 1.8490934
0.44946629 0.57665908 -0.4791292
0.4793736 0.60095 -0.52687937
0.4944886 0.61119932 -0.54927242
0.3973372 0.57126009 -0.46798819
0.6006797 0.58744872 -0.5098362
0.46247131 0.59787029 -0.52233881
0.3936924 -0.71401709 1.990052
0.50911099 0.55787528 -0.44792041
3.7830312 0.091640599 0.76063973
2.6539629 -0.64252907 0.61728662
0.56139421 0.49223059 -0.31701091
0.88084042 0.34068131 1.8014103
0.74977928 -0.043498799 1.9257023
0.39475119 -0.71720392 2.0029356
1.4633344 0.094860598 2.3133044
4.4871922 0.99573147 0.51457769
0.7262255 0.55308563 -0.43106481
3.5262821 0.73738271 0.98808378
0.76971239 -0.39085999 1.9009141
2.1280565 0.8230834 0.91827577
0.62422621 0.60206419 -0.53665692
2.3142893 0.88856357 0.97468477
0.3212086 0.50773281 -0.33070201
1.0232508 0.4450033 1.7261827
0.59696269 0.50077337 -0.33927429
0.57020998 0.56393099 -0.4604997
0.49555999 0.61499989 -0.55399913
2.6518128 0.83451593 0.85298228
0.57716483 0.58200312 -0.50097299
0.43537989 0.53029788 -0.39633089
0.62186289 0.5905596 -0.51180732
0.62974888 0.62697369 -0.58531559
0.57110113 0.54507083 -0.42992851
0.86605233 -0.1592849 2.1053009
3.0358288 0.93637758 0.7320354
3.0830131 0.95279288 0.76279652
0.45934501 0.55733091 -0.4481273
2.752203 0.89298922 0.88812381
0.39349911 0.55511707 -0.4285641
0.52152711 0.51772952 -0.37173429
0.37008661 0.5590601 -0.43612209
0.67868012 0.60332048 -0.53771973
0.56092489 0.4914583 -0.3189244
0.46054101 0.4528431 -0.2285831
0.69481719 0.50146121 -0.33418831
0.64613008 0.47928259 -0.29644099
0.39977729 -0.71812391 2.0155284
2.6337612 -0.63275748 0.60749221
0.1662228 -0.73820662 2.0436738
0.73534697 -0.68969429 1.9199847
0.1641956 -0.7527135 2.0841856
0.73495221 0.088906601 1.9511298
0.84255803 -0.3041577 2.0316048
1.7417841 -1.3883274 1.5393155
4.0332417 -0.35050461 0.61195087
3.7049773 0.97322452 0.72822487
1.3995758 -0.26462379 2.0722847
1.7149097 -0.83091491 1.6114163
0.76219422 -0.89430672 1.9333211
1.6230656 -0.24448539 1.9695126
1.6385871 -0.2542361 2.0374315
0.61472112 0.38683391 1.882026
0.35851809 0.40698221 1.8108993
0.42980129 0.55722868 -0.44154939
0.63477629 0.53161401 -0.3961511
0.54753572 0.53957438 -0.42099431
0.88126248 -1.0071694 1.7972904
0.624075 0.51046622 -0.3599661
0.69606078 0.57347608 -0.47858191
1.7961543 0.79275519 0.97792971
0.61657721 0.38262531 1.7168927
0.42024711 0.58821082 -0.49985269
0.58042091 0.51748008 -0.37116379
0.5330171 0.60247147 -0.5341863
0.53351861 0.58680332 -0.50544041
0.50138932 0.51116037 -0.355865
0.36357591 0.56049901 -0.44143859
0.62490052 0.60181153 -0.53662938
0.59838909 0.56005442 -0.4542242
0.43002149 0.55736369 -0.44108999
2.5907514 0.9620738 0.65057009
0.58369428 0.3988699 2.0027397
1.9492844 -1.269824 1.4924356
0.53455842 0.60164237 -0.53320372
0.73808533 0.45923951 -0.26919189
0.3704116 0.55316651 -0.4238182
3.7140317 -0.36745599 0.46130681
3.2779317 0.80723369 1.2365444
3.2328842 0.90401649 1.0447413
2.894192 0.75882179 1.007504
1.8140029 0.1725737 2.2123876
2.6393521 -1.3163277 1.5075157
4.3034239 1.0301934 0.45440769
4.9817796 -1.0185081 0.58517379
4.8607488 -0.97736287 0.54137552
0.82405621 -0.8766464 1.813108
1.783627 -0.81645632 1.8142167
3.5345726 0.7222681 0.98495388
4.0370541 0.92862499 0.64861828
2.6499813 -1.2956167 1.4904573
4.0452223 0.89140213 0.75608158
4.0394883 0.88889962 0.76066518
2.4529335 -0.58894789 1.6207006
0.7593236 -0.62127692 1.861663
2.6693926 -0.2325217 2.0125034
0.53202802 -0.6606586 1.95453
2.4881423 0.1911979 1.9066348
1.0061046 -0.58398849 1.9026592
3.0083082 0.90628803 0.771083
0.86202317 -0.93797362 1.8097211
3.0459082 0.99449891 0.73565942
0.39751121 -0.73877913 2.045562
3.0071635 1.0271822 0.59215277
0.74641651 -0.054687001 1.9419628
0.78702158 -0.80848759 1.8590461
0.77781928 -0.76820832 1.8193399
3.0060313 0.90815192 0.7633515
0.79240882 -0.63500232 1.8158826
0.9006722 0.28903821 1.8919278
2.4454639 0.63889492 1.3424733
3.0351045 0.90557683 0.7824657
0.98310661 0.2618739 1.9727322
1.0062352 0.25452071 2.077049
0.82105631 0.1747421 2.1622927
2.5906799 0.74391568 1.135166
2.4172788 0.65265107 1.2686194
2.9506483 0.80333781 0.9384197
0.88265622 -0.35998169 2.0725765
0.8844735 -0.33689821 2.0042176
0.90913928 -0.49198741 2.0909066
2.4259295 0.65157491 1.2887181
1.7430035 -1.4081146 1.5440031
0.89482409 -0.3681213 2.099961
2.9925065 0.77263159 1.0517316
2.9686182 0.76902258 1.0337933
3.7310729 0.97413099 0.71372128
2.5137842 0.66425192 1.2096038
2.4354832 0.63202089 1.3500295
3.6111619 0.96236819 0.69263518
2.3900769 0.62325978 1.304026
2.9714425 0.76979512 1.0488709
3.0913956 0.78679729 1.1512953
2.3958204 0.62785733 1.304414
1.7632952 -1.3803636 1.5968325
2.5331047 0.66380572 1.2293893
1.7904906 -1.2666368 1.5538642
3.6994357 0.96980792 0.70120662
2.8359597 0.73391318 1.0461668
2.9137034 0.74746341 1.0992527
2.5686822 0.67228431 1.2596385
1.8012353 -1.0293244 1.7439377
2.4039781 0.62924862 1.2961828
2.4482675 0.63541669 1.345251
2.8492053 0.58180088 1.3450215
2.7183535 0.58569127 1.250518
2.044251 -1.1377316 1.6165909
3.9702606 0.97478187 0.65978712
3.9541512 0.96859998 0.65635091
3.0146666 0.70940793 1.1080091
1.7376902 -0.2159545 2.0045004
1.7133039 -0.222425 1.9422841
3.0154095 0.71210712 1.1124054
2.4896498 -1.2260284 1.2915891
3.5981078 0.71566659 1.0018885
2.5920196 -1.2361549 1.4226863
3.6484425 0.71907318 1.0335075
2.3779726 -0.56212318 1.8572925
2.589437 -0.52236819 1.7545691
2.5954833 -0.52791947 1.7739143
2.5980844 -0.52374631 1.7575036
4.0324364 0.86002749 0.852952
2.587744 -0.61119318 1.7383075
2.5443268 -0.21375941 1.8894916
2.6242723 0.18748569 2.0762882
2.6119425 0.19269431 2.0602541
2.4012394 0.18840019 1.7938321
5.4816103 -1.135726 0.72157288
5.7138281 -1.2004681 0.80647612
0.55039221 0.63115531 -0.58998001
0.36695939 0.5759598 -0.4699882
0.55752152 0.62010622 -0.56691289
0.4877851 0.59466201 -0.51619691
0.60817969 0.62527877 -0.5817216
0.57917422 0.61549717 -0.5612691
0.38188201 0.552297 -0.4285832
0.37498289 0.54727727 -0.41377351
0.50873619 0.57425767 -0.47883949
0.50725812 0.57315052 -0.48003969
0.3644661 0.51794368 -0.3662321
0.57952529 0.57643569 -0.4839128
0.62111032 0.58556807 -0.50515908
0.4826006 0.52701658 -0.3865017
0.4642764 0.52251053 -0.37048271
0.66805768 0.58492953 -0.50015968
0.57479668 0.54705441 -0.4273589
0.70901179 0.57946903 -0.4896996
0.44787559 0.48209849 -0.2871418
0.56142402 0.49207839 -0.31529579
0.28887099 0.54907298 -0.4114866
0.6518532 0.50006741 -0.34204689
0.51877308 0.63022077 -0.58622593
0.85735869 -0.9249658 1.7856026
0.43383679 0.58332193 -0.49178821
0.93087322 -0.3386634 2.0719903
1.0588343 -0.4368785 2.4452796
0.44540331 0.61430413 -0.55401039
0.41378379 0.59802681 -0.51835853
1.3262563 -0.58434153 2.046731
1.4816986 -0.26235181 2.0164886
1.3661733 -0.2444815 2.0082006
0.38819379 0.57465291 -0.46832189
2.6531198 -0.45009699 1.8863204
0.33873799 0.4452588 -0.32226771
1.3618723 -0.2295555 1.9460394
1.4881459 -0.22455341 1.9456772
0.4919036 0.62759352 -0.58210939
0.48773009 0.6328333 -0.59249318
1.6038078 -0.2521055 1.9939897
0.48185891 0.62556207 -0.57594341
2.5863321 -0.4582372 1.8550111
5.4054289 -0.99535608 0.77844489
0.35091111 0.58427101 -0.48809841
0.58140528 0.61926973 -0.5670194
0.27783319 0.53134149 -0.37303269
0.3071208 0.53644347 -0.38853309
0.67706382 0.6034463 -0.53799683
0.3462846 0.50792527 -0.32816899
0.3332451 0.50004369 -0.3240397
0.59322709 0.56033123 -0.45971441
0.59443069 0.5615806 -0.46074501
0.54430991 0.54900408 -0.42739779
0.48339891 0.52737957 -0.38575089
0.47587299 0.51902193 -0.36655781
0.52591181 0.52534831 -0.39194649
0.7169857 0.58831161 -0.50505781
0.57755679 0.52948987 -0.4015221
0.42997769 0.47102481 -0.26296839
0.64880639 0.48748699 -0.31577319
0.70123112 0.50447458 -0.3316409
0.58202541 0.61932641 -0.5688343
0.69055462 0.39398751 -0.15545499
0.29980469 0.54701239 -0.40720299
0.3702645 0.5585683 -0.43665749
0.8641029 -0.98735583 1.7464366
0.4002735 0.58092922 -0.4842864
2.5612125 -0.5357573 0.71757209
1.3243558 -0.67318451 1.7178984
1.8026448 -1.2265702 1.6479378
2.3852477 -0.81390703 1.8369993
0.42777011 0.58405328 -0.4944604
2.0324452 -1.0202519 1.7043219
1.349274 -0.28640839 2.0171139
1.5121619 -0.27951929 2.0804191
0.40035471 0.581182 -0.4842594
2.6222541 -1.2064682 1.4988681
2.6399024 -0.67879212 1.7847899
2.533536 -0.2147595 1.8844206
0.44083279 0.60480672 -0.53538948
0.4943662 0.61447412 -0.55618811
0.3724685 0.57453167 -0.46613559
0.48090839 0.6003316 -0.52545029
0.3016676 0.54976797 -0.41528329
0.48007199 0.60022181 -0.52612668
0.30163479 0.55003679 -0.41560981
0.49725169 0.60362118 -0.53297848
0.50485039 0.5943256 -0.52066839
0.44918481 0.57666528 -0.47999761
0.44959241 0.57773298 -0.4790754
0.53544801 0.58106941 -0.49413839
0.37783709 0.5362677 -0.38733241
0.62644571 0.60290992 -0.53594601
0.72660702 0.62148422 -0.57027018
0.72811568 0.62121552 -0.57045972
0.5957011 0.56291592 -0.4616226
0.57536119 0.54602039 -0.4258503
0.65957582 0.5339902 -0.4019134
0.47372869 0.62575769 -0.57533783
0.3883206 0.57976133 -0.38615149
0.77394098 -0.4748683 1.8766966
0.4702245 0.61361068 -0.55452669
5.3763804 -0.63856423 1.1004537
0.31758499 0.57293332 -0.4644646
1.3897164 -0.2588394 1.9980158
2.2886102 -0.76157618 1.7304622
0.53413659 0.60144359 -0.53440863
0.2940025 0.53442699 -0.3811174
0.40181059 0.53329748 -0.39222679
0.53769243 0.54221511 -0.41783911
0.61720163 0.53953862 -0.4127329
0.67492408 0.56037599 -0.4539586
0.4739114 0.49097511 -0.31369761
0.69839448 0.51397723 -0.3671467
0.5362637 0.4629505 -0.2582911
0.71830207 0.50343418 -0.33590111
0.61419928 0.4714821 -0.2700161
0.55450988 0.44760999 -0.2272671
0.67307252 0.3951222 -0.1480322
0.2665239 0.5294221 -0.3652595
0.80434352 -0.6635983 1.882321
0.26652521 0.52883738 -0.36495441
1.3792951 -0.23618861 1.9838933
0.2664603 0.52928078 -0.36431399
1.7443323 -0.2498931 1.9165713
1.7403551 -0.25558111 1.926944
1.5098894 -0.25932771 2.0570929
1.7978231 -0.74372917 1.8818452
1.8810469 -0.87364292 1.8948275
0.80985212 -0.69857228 1.9141587
1.6247492 -0.55585968 1.8370794
3.7128682 -0.30620101 0.48968661
1.3528107 -0.68579501 2.0742278
1.7278605 -0.6190275 1.9809338
1.7964865 -0.56856543 1.9230257
1.8681133 -0.61195958 2.0284612
0.62980878 0.017485701 0.38044769
5.6086917 0.33318979 0.65888542
5.9045944 -0.98123097 0.62456697
2.1293604 0.56271082 0.064182803
5.9756002 -1.0245548 0.62945241
6.1463156 -0.54577219 0.90724641
6.1965203 -0.53130001 0.90913367
0.87555969 0.72921312 0.99956298
0.88375628 -0.47397771 2.0231414
0.97030222 -0.56859148 2.0422063
0.35191369 0.54461372 -0.39638001
0.48372009 0.57443309 -0.4806591
0.33518791 0.51287061 -0.33846739
0.56025791 0.49142751 -0.31780851
0.86134112 -1.0209439 1.6950759
1.033909 -0.62274742 2.0107346
1.8101575 -0.6965853 1.9413838
0.43072721 0.55664772 -0.56247783
0.72783118 0.44437641 -0.34424931
0.33201119 0.39866659 -0.19082659
1.2363536 0.1134579 0.4795416
0.3400034 0.5299716 -0.31341669
0.54413801 -0.65890479 1.9495951
0.4020586 0.54827541 -0.54708809
0.66486537 0.55978239 -0.43355441
0.54322422 0.55694473 -0.13961101
0.72066951 -0.85950857 1.7288471
0.3396672 0.44432029 -0.32111371
0.4421691 0.60580271 -0.4256348
0.65073538 0.52528697 -0.1795003
0.53257507 0.55666548 -0.15666419
0.3325628 0.39912781 -0.19030739
0.67824388 -0.6879276 1.9085842
2.6692481 -1.1734065 1.5309219
5.8996029 -1.0434784 0.59093082
5.634347 0.94669008 0.3792775
5.4892149 1.0712544 -0.5708831
5.6187782 0.92921722 0.40347609
5.6119652 0.26171419 -0.35581291
5.6687064 0.95349789 0.2488583
5.23105 0.86098772 -1.688473
4.9871001 1.8020761 -2.1318328
1.3779628 0.23855241 1.9647297
5.4696546 1.0871712 -0.56612539
5.2322688 0.77991182 -1.833347
5.4993277 -0.1003901 -1.0227842
5.6354346 0.93531442 0.3902927
5.3803325 0.1414077 -1.4681358
5.2363992 1.4885941 -1.2062279
5.6227646 0.23291489 -0.35586759
1.0055876 -1.0929614 2.1281958
5.7063956 0.3011739 0.28719211
1.6481303 0.0493563 2.2878094
5.5688844 -0.2790117 -0.8480764
5.6344552 -0.28066599 -0.57415468
5.644752 1.0405704 0.14853141
5.2582397 0.30000231 -1.9177113
4.334579 1.264966 -0.4847284
5.0414181 1.6962006 -1.6047856
5.256588 0.30502859 -1.9141541
0.39472181 -0.86495042 2.3721044
5.3874307 0.53503942 -1.2006212
5.2673297 0.31570509 -1.9054296
5.3790607 0.1220982 -1.4753015
5.0389395 1.080615 -2.6919205
5.6115379 0.1609364 -0.3970876
5.3769259 0.1370637 -1.4672203
5.2146463 0.86345571 -1.679912
5.6315579 -0.0148655 -0.40574431
5.3795061 1.0164195 -1.0582595
5.3986111 -0.108547 -1.5153881
5.1376615 0.3984004 -2.4124992
5.6728268 -0.1230309 -0.21506789
5.6225495 0.2076045 -0.35573319
4.4548182 1.239645 -0.38576469
5.2062173 0.77934682 -1.8284736
5.5003738 -0.1254746 -1.0366582
5.2239447 0.86313063 -1.6871809
4.9660444 0.56349027 -3.064754
5.4899721 1.0917714 -0.56311482
5.5019956 -0.14825299 -1.0483068
3.4548848 1.0397326 -2.1166692
3.9499393 1.1874177 -0.53584808
2.5479786 1.0403115 0.43503839
4.9655972 1.157003 -2.9507229
3.7238445 1.3871474 -0.80129403
5.0630412 0.62040257 -2.8663216
4.0995836 1.2651545 -0.58761078
5.0706434 1.1366962 -0.029860999
4.5033779 1.1595607 -0.14398161
5.133214 0.4119795 -2.403662
5.4722829 1.0605044 -0.57662171
5.1391382 1.7412133 -1.6232214
5.0238638 0.61657661 -2.847405
3.5327294 0.96270669 0.3257263
5.0966482 1.0774988 -2.1472764
5.1307287 0.41979679 -2.3965824
5.0111876 1.032636 -2.0816724
5.0715661 1.6816791 -1.5782796
3.4187706 1.5087909 -1.0931396
5.3758535 0.1241397 -1.4689201
4.8654203 1.1191454 -2.914181
5.6853213 -0.1036919 -0.2268469
5.8132644 -0.069621503 -1.1485232
5.2617545 0.29916209 -1.9249747
5.3575554 0.99224061 -1.0562838
5.0143137 0.63526422 -2.8373725
5.2498193 0.106081 -2.051101
5.3065028 0.45578879 -2.5000966
5.3553429 0.67765647 -1.2422056
5.0974956 1.5885589 -1.92151
5.6248455 0.67785162 -0.1542432
5.3170886 0.32649431 -1.9302006
5.1609912 1.699751 -1.5740012
5.3758578 0.1210229 -1.4775969
5.9267511 1.00546 0.463076
4.0858717 2.7178705 -4.7323275
3.4809303 0.56585628 -2.9673717
3.379122 0.62187958 -2.7359979
5.1530423 0.4189457 -2.4068251
5.4653883 0.52588421 -0.76324522
5.4759192 0.68192053 -0.71920651
4.9200335 1.1556932 -2.9368639
4.0761862 2.712709 -4.7317395
4.4675012 1.2520599 -0.38316709
3.445744 0.96992117 -2.4603188
5.1918087 0.40967369 -2.4485536
3.3523803 0.50175953 -2.7959802
2.3007638 0.99060053 0.1475528
5.2292175 0.51160622 -1.8393171
3.8745575 1.1093969 -5.7797666
3.9350331 2.5982745 -4.550384
4.2414885 1.3673654 -0.65174079
2.8947628 1.8813854 -2.2343438
5.1217074 0.66247582 -2.2999308
4.9493346 1.0895592 0.021412401
4.054945 1.3365571 -5.7161736
5.1591201 0.1037264 -2.5434461
5.3864179 0.69413263 -1.2277335
3.4509807 1.6735947 -1.7894549
4.0629792 2.2860508 -5.4666324
5.0030198 0.57202113 -3.1193285
5.3046002 0.92599982 -1.3356878
5.3984475 0.99052292 -1.0703002
3.3685153 0.50177717 -2.8253014
4.477694 1.2527851 -0.3883293
3.0587776 1.6253034 -1.7898625
3.9736614 2.2135227 -5.3128285
5.4890943 0.1281098 -0.93569732
4.5782938 1.5043689 -0.72865373
2.7890322 2.0366917 -2.502769
5.1296277 1.4245324 -1.8420573
4.0286345 1.320286 -5.6678872
2.634464 2.405185 -3.4841754
4.9982042 1.0559683 -2.6700737
3.4699385 0.93579882 -2.3596673
4.4424276 1.2319515 -0.38713121
5.2217655 1.1303271 -1.5839012
5.4729967 0.53577387 -0.77916747
4.0652442 3.084785 -4.8070469
4.0383539 2.6870229 -4.6930671
3.848572 2.6985698 -4.7472553
1.960494 2.2444851 -3.6769624
5.2920909 0.45718431 -1.8982569
5.3493543 1.1684445 -1.114904
5.251893 0.2983093 -1.9228964
5.1289759 0.3887783 -2.4149246
5.2040248 0.77965462 -1.8311199
2.6807528 2.5025153 -3.6110933
5.1886959 0.2105867 -2.5245008
2.5068405 1.8723974 -3.7017949
1.5360023 1.9842668 -5.2550273
1.5500758 2.0373774 -5.3635268
3.1488268 1.3912507 -1.2056041
2.5973949 1.5651804 -3.8808763
2.5555832 1.3428783 -0.69124788
1.5527657 2.0106077 -5.3146734
2.7030051 1.6921145 -4.1798902
5.5171256 -0.4355652 -1.1609843
3.9133751 1.0493271 0.1230522
3.3392007 1.5000353 -1.0771586
2.6611893 1.6376138 -4.06813
2.6422548 1.6394321 -4.0238209
1.977289 2.2174346 -3.6176808
2.6969376 1.6831875 -4.1661234
1.9741776 2.2218323 -3.6450598
2.5379386 1.9106379 -3.7662766
5.1270185 0.6705898 -2.2867031
5.2119179 1.0715064 -1.5946859
5.2402444 0.44503421 -1.8750995
5.1179676 1.081388 -2.1299672
5.4887333 0.67619169 -0.71996337
5.4856396 1.1637471 -0.53817338
1.5436175 1.9739571 -5.2439828
5.1261387 1.3594899 -1.9548198
5.109323 1.0767041 -2.1300352
2.5850196 1.5729655 -3.8871021
5.0610595 1.8044132 -1.6716692
4.9824286 1.7994426 -2.1223235
2.7111053 2.5641506 -3.6755235
3.5344617 1.1164975 -2.18385
1.9352287 2.163193 -3.5407982
2.4018996 1.712799 -3.4381905
2.7062714 2.547343 -3.6657166
3.3605146 0.63332212 -2.8302648
2.6891749 1.6785938 -4.1470895
3.4205449 0.59213167 -2.8714767
3.257699 1.2074612 -0.33715951
3.9747963 2.2155061 -5.3039675
3.7712195 2.5759602 -3.9635727
3.9134905 1.512676 -4.4708939
5.240654 0.67274451 -1.7661638
5.3598099 0.4794305 -1.3302245
5.0525665 1.1118519 -2.4804044
5.2624173 1.3099593 -1.4566801
5.6202636 0.63293052 -0.2119635
5.096015 1.6892993 -1.8733219
5.2079563 1.202984 -1.6014471
4.1137047 2.783741 -4.8530507
5.5210695 0.1237585 -0.75778759
3.7088218 1.3965317 -0.80183238
5.3435378 1.1708291 -1.112344
5.2544365 1.2422913 -1.3894122
5.6353836 0.44731301 -0.28595659
5.1814718 1.7326448 -1.5931885
5.3107495 1.2917626 -1.1224148
5.2433167 1.293364 -1.4554958
5.3244891 1.2958106 -1.0536623
4.4169154 1.240624 -0.4632498
5.3929625 -0.40054369 -1.6865174
5.7272744 0.076069303 0.1466894
5.6565504 0.57598251 -0.046389401
6.0156856 0.56069458 1.2474337
6.0033813 0.56572109 1.2466929
6.0210018 -0.4658384 0.83400571
5.9440308 0.56652391 1.2211475
4.3444824 0.90900117 0.59436327
5.995153 -0.47510111 0.82156169
4.1342239 1.0411074 0.2083483
-0.62380779 -1.1652335 2.7184577
0.36193079 -0.99200118 2.3122051
-2.1161757 -0.44878161 1.2715778
-0.54229832 -1.1229393 2.6225481
-1.9880085 -0.6037845 1.5617369
-0.62882918 -1.0469695 2.4130204
-0.15346061 -1.1845907 1.8213544
-0.53699481 -1.1146959 2.6273246
-0.30379269 -1.2984052 1.9822228
-1.9993286 -1.4436524 2.7583623
-2.2490504 -0.4080964 1.2124979
0.84782243 0.92280608 -0.36964601
-2.2402687 -0.92915332 0.65738732
-2.244204 -0.40503839 1.2233174
-0.1880181 -1.2092608 1.8568239
-1.7883992 -0.76639962 3.1194892
-0.5186587 -1.1054999 2.5919688
-2.1159482 -0.73820013 1.0170741
0.79380268 -0.33297679 2.360734
-2.0704477 -0.72051048 0.99247539
-2.5061975 -0.38316441 0.26694691
-2.199177 -0.78541952 1.0694277
-0.94325119 -0.84065652 2.5903137
-2.1898847 -0.4505963 1.3045087
-1.0755413 -0.86249292 2.7063441
-2.3501024 -0.79252052 1.1423192
0.8412621 0.68447518 -1.0154845
5.4748211 1.1650403 -0.53490078
5.6463604 0.42744511 -0.1694725
5.1418638 1.4083242 -1.8059365
5.6484137 0.2149073 -0.2584697
5.3477821 0.91401702 -1.1497376
5.333159 0.2891798 -1.5227133
3.0156271 0.85641283 -2.1721869
5.2321391 0.4896152 -1.8374751
5.3799639 -0.1487821 -1.6436172
5.3600712 0.47976279 -1.3326664
5.1660423 0.70938098 -2.0990264
5.2998538 0.00026969999 -1.9207771
5.6004419 1.053656 0.076143302
5.2144547 0.35752541 -2.0762162
5.3689394 -0.065040097 -1.6181402
5.4151964 0.0595528 -1.3210983
5.1294637 0.77390993 -2.1944828
5.4019036 0.52462971 -1.1836455
4.5063992 0.33586571 1.396595
4.1199412 -0.44350761 1.6312538
4.5055585 0.33328739 1.399274
4.60039 -0.81692863 1.09162
4.501348 0.34054741 1.3822047
4.4734211 -0.31542769 1.3611382
5.0794911 -0.68081188 0.85472542
5.6497641 -1.133569 0.51546317
5.6865697 -1.3911678 0.8431083
5.6571927 -0.55255419 0.68118352
4.1299996 -0.404704 1.5786915
5.0711298 -0.68775779 0.83709282
5.6307163 -0.53108102 0.63000578
4.5383315 0.36354029 1.284059
5.0974598 0.70308018 0.6329968
5.1028171 -0.73051661 0.92653942
4.490274 -0.3223522 1.4474503
5.6411748 -1.3473302 0.76239598
5.6653485 -0.55862588 0.69283158
4.6117606 -1.2950763 0.89713782
4.1348634 -0.4312183 1.6792352
4.5940504 0.34728909 1.2875221
4.4715405 -0.3222633 1.3744229
5.7097001 -1.4073168 0.70808482
5.6667876 -0.51665127 0.67437649
5.1886764 0.4612762 -1.2205139
4.5106978 0.32712349 1.3895041
5.6459899 -1.0875142 0.50746292
4.6080093 0.35338899 1.390029
5.663116 -0.54612499 0.69762838
4.5773878 -0.77237362 0.95340192
4.2258134 -0.43783689 1.5529076
5.5460162 0.50909048 1.0081742
5.5202641 0.52468598 0.95288461
4.5838175 -1.2687523 0.80711991
4.7081122 1.018281 0.087249301
4.5475492 -0.7109732 1.0299958
4.2031579 -0.43363851 1.4890047
4.5286674 0.1163339 1.2903783
3.6139252 0.73239279 0.70025802
5.04567 -0.70793372 0.83480299
1.9430134 -0.82649261 2.1055856
0.85811257 0.036737598 2.2738485
-1.6501403 -0.37703839 3.3342915
-1.908657 -1.2369373 3.0131221
-1.9024268 -1.8700029 2.7948148
-1.8604658 -1.447382 2.8957078
-2.3755937 -1.3802255 2.2732255
-1.6549484 -1.1737078 3.1784577
-1.6660563 -0.74630672 3.2118337
-1.9036158 -1.8589051 2.7784808
-1.5940812 -0.36817539 3.2633166
-1.5779151 -0.36770931 3.2601562
-1.892859 -0.77606767 3.4349988
-1.7468412 -0.75353187 3.2944362
-1.9624021 -1.4618652 2.9653685
-0.085849904 0.0153735 2.3819716
-2.0993013 -0.25476959 2.5136697
-1.564339 -1.1634054 3.0921366
-1.5909723 -0.37125361 3.2758274
-1.7079397 -0.74822938 3.2571342
-1.8320975 -1.2120714 2.9502738
-1.7603395 -1.1832964 2.8613284
-1.6551517 -0.74755877 3.1763039
-2.4117098 -0.81132299 1.1726897
-2.2283309 -0.72207129 1.9411118
-2.4211988 -0.56304532 1.5774579
-1.8451477 -1.2044673 3.0625155
-2.1410246 -0.72940463 1.903901
0.0170356 -0.98866367 2.5857496
3.6482499 1.4324129 -0.88332582
3.4941752 0.92485201 0.32168651
1.8729181 -0.36473289 2.1961653
2.5540144 0.52947468 1.3347694
4.2300277 1.3314118 -0.62223881
5.3110619 1.2888983 -1.1129538
5.5876927 -1.4088993 0.42880729
5.1478262 0.059331499 -2.504401
5.2318149 1.1352162 -1.5797679
2.9893477 0.66463637 1.0678033
5.240664 -0.23182739 -2.1347868
5.1124425 1.5908732 -1.9235494
2.706454 0.13817181 2.2029383
4.9369516 1.7039781 -1.5726613
5.2294636 1.1219888 -1.5802002
5.0647731 -0.4454518 -1.6801286
4.8981018 -1.448121 1.0564259
5.3166108 1.289997 -1.0540619
4.1917486 -1.9152066 0.96421683
5.0448256 1.8546182 -2.1211476
5.4115658 -0.46239379 -1.7113659
3.9426572 1.0409405 0.1309588
5.510488 0.52069759 -0.74838132
5.5926619 -0.97522962 -1.1536856
3.4200246 -1.5930303 1.4191639
3.4721124 1.0636994 0.2713787
5.5052137 -0.36761689 -1.1249547
5.793849 -1.4554286 0.47308239
4.1750078 1.3320197 -0.62985867
3.3396122 0.86209911 0.29637069
5.3039565 -0.45730069 -2.0452178
3.509901 -1.5154241 1.2535975
4.3979874 1.1602083 -0.1818172
3.5158062 0.95438159 0.31703171
5.3561325 1.1089464 -1.2044681
4.1813173 1.3270575 -0.62407899
5.2865996 1.1469827 -1.194496
5.5334239 -0.1302384 -1.0343754
2.5689092 -0.70025587 1.8780433
3.6891534 0.24140871 0.84838688
4.8695183 -1.7533293 0.6625582
3.9075158 0.28572971 0.90339959
5.5884633 -0.94827592 -0.85476768
2.7480514 0.1406467 2.2599092
3.5262146 -1.5461646 1.2502232
3.6455448 0.226469 0.82172412
5.7386098 0.92509103 0.50265449
4.1958752 1.306255 -0.618653
5.5772429 -0.73440433 -1.2749996
3.4405673 0.82177562 0.63063902
4.1689944 -1.8861557 1.0132898
3.739871 0.81302971 0.50989962
5.3851275 -0.45057029 -1.6971408
5.2924562 -0.4701609 -2.1459219
5.0122309 0.64186329 -2.2947106
5.5096297 -0.3464722 -1.1268321
5.5015707 -0.72212309 -1.2630041
3.3103292 1.1668463 -0.16573919
5.1496058 1.6250882 -1.909233
4.1232018 1.252566 -0.41349041
3.4633169 0.80860269 0.62227362
5.4250593 -1.1290522 0.82278627
5.0585217 1.7091476 -1.6205105
5.3977542 -0.4035252 -1.69073
4.1769123 0.30469769 1.058967
2.6492286 0.65423411 0.92124629
3.5576606 0.82393932 0.65512538
5.2353764 -0.2549625 -2.1436303
4.8505688 -1.7491269 0.65385991
5.2318192 -0.016878201 -1.9822822
5.5323892 -0.77468759 -1.3065777
4.2367473 1.1605012 -0.1697832
3.4090722 0.92150491 0.37768739
1.8514259 -0.2909666 2.2230394
5.0802541 1.8460077 -2.1503358
4.8276806 0.45349929 1.5618103
5.6909003 0.90790421 0.50452411
3.7798545 0.83686519 0.54646802
5.9917698 0.55052912 1.2305571
6.04145 -0.45644581 0.83933491
4.9515247 0.83899939 -2.4110618
4.6102905 1.3100016 -0.37644541
5.3254361 1.2938763 -1.0514059
2.7337143 0.14040969 2.2332895
3.5724771 0.63309437 1.0528179
5.529757 -0.67099482 -1.2617536
5.4273357 -0.41585451 -1.6919998
4.4439464 1.2401805 -0.39304799
3.4404519 1.1776603 -0.27926809
5.1091862 1.5917864 -1.9148902
5.1082716 1.6053146 -1.9032162
5.9438753 -1.2003723 -0.67240232
5.7973394 -1.4564013 0.46884501
5.0824227 0.8149426 -2.1931403
5.3172774 0.1246705 -1.8104089
2.5824428 1.2169514 -0.355735
4.2413921 1.1651868 -0.1731527
5.7189665 -1.1643331 -0.69604862
5.2865572 -0.22341511 -2.1394095
5.3740473 0.50585902 1.3658648
3.7970111 0.83526689 0.56789702
2.788733 1.0967073 -0.097102098
3.3046288 0.90247482 0.3085148
4.9642129 1.0998334 0.090526
5.4365535 1.0664252 -0.57579207
5.5583248 -0.77614439 -1.3049021
4.2976189 1.2850698 -0.50125462
5.6354246 0.91959321 -0.0019348999
5.9289141 -1.3805072 0.28703919
5.2440939 -0.46856809 -2.1351712
5.9213824 -1.0151786 0.41420889
4.2669806 1.3396732 -0.65468663
3.5746031 1.2691389 -0.49797919
4.9629631 0.3756066 -2.3815293
5.1756873 -0.4133144 -2.3414421
5.3960018 0.49690351 -1.3172679
5.0821838 1.6596901 -1.884509
4.7886782 -1.502532 0.71570659
4.7728534 0.44071439 1.402904
5.2204499 0.65462941 -1.7705665
5.3029022 1.2851055 -1.0577469
3.5235806 -1.5170944 1.2746838
3.1458812 0.94268262 0.36590651
5.2957764 0.88388532 -1.6880924
5.3161621 -0.46376109 -2.046283
5.0774403 1.7009588 -1.6145843
5.676177 -1.4124413 0.38770929
5.3981533 0.4947907 -1.3176671
5.9027719 -1.0182147 0.41696349
5.0330257 0.3820295 -2.3982897
4.8393307 -1.746914 0.64833921
4.3086834 -2.1752634 0.91065723
5.1591749 -0.1373553 -2.6365588
5.2194953 0.40569001 -2.442312
5.4698639 -0.79993641 -1.5774157
3.1940172 0.89531559 0.43230891
5.3986998 0.68048233 -1.2271088
5.501791 0.5367282 -0.7612192
3.5242479 0.95187998 0.3245635
4.8925672 0.47741121 1.4930471
5.9197178 -1.3740193 0.27014229
4.8912497 -1.1587864 0.86778629
4.781692 0.46658519 1.4076642
5.5447655 -0.020362301 -0.79187351
5.3862023 0.55068111 -1.1959603
4.8123875 -0.227019 1.5505335
4.8109565 0.25362799 1.5029856
3.5985396 -1.0989956 0.33055139
4.8085313 -0.22572429 1.5918708
5.5297475 0.18183979 -0.71323073
6.0129838 -0.98467231 0.68333572
5.7752361 -1.4530919 0.46263069
4.8262997 -0.3446874 1.5454462
4.887382 -1.1719564 0.87705451
6.3838253 -2.274976 0.50663221
4.873178 -0.62624192 1.1428913
5.3365369 0.93765467 -1.1372107
6.0645542 -1.7836843 0.59544587
5.4431405 -0.93241531 -1.1990879
5.6302629 -0.64997947 -0.73146743
3.5093517 -1.5270474 1.2468922
2.7420728 0.94994903 0.25656429
2.7901654 1.0937141 -0.093017697
4.1835384 0.91297829 0.2846452
4.8588405 -0.63739562 1.1125472
5.5181928 -0.48421019 -1.1232727
4.2824202 0.91785991 0.45358679
4.9019308 -0.40772599 1.5076717
3.8784251 0.79870093 0.63113141
3.6540573 0.82651752 0.61733472
4.8156881 -0.62213808 1.0392839
5.7079735 0.54444569 0.96824348
2.7539952 -1.6739445 1.5305223
5.5850763 -0.8005144 -1.0422082
5.658731 -0.48515159 -0.44372171
4.7943506 -0.1537655 1.4129504
4.9146962 -0.66846132 1.2010931
5.5316024 0.1745249 -0.72011691
5.5482688 -0.5259704 -1.0717494
5.3884554 0.25586289 -1.4021865
5.3628855 0.6466521 -1.2625316
3.5152535 -1.5306207 1.240634
5.6257348 -0.45273179 -0.65199548
4.871345 0.47200379 1.6195617
2.4187846 0.48811081 1.4124058
5.4902735 -0.0370504 -1.0686483
5.6983242 -0.36420819 -0.31822509
4.8899794 0.472148 1.4650503
5.4749446 0.31938231 -0.90370733
5.6910868 -0.73541462 -0.53965712
4.7771492 -0.2254017 1.5554552
2.7413943 0.68512642 0.95401073
5.7634044 -1.0939506 0.60913491
1.9121859 0.62534708 0.88944298
5.9226418 -1.0230017 0.4274908
3.6162915 -1.112379 0.36190149
3.4581079 0.82506531 0.64700568
4.7648692 0.2419671 1.4531314
4.8678579 -1.1544802 0.85723573
5.4914541 0.1946782 -0.91469759
4.1296549 1.313351 -0.48503441
2.8301511 0.57387412 1.1476777
4.3966141 -0.33220351 1.6952873
4.4159436 -0.32396579 1.7305349
4.520771 -0.36678511 1.6231283
4.1433153 -0.48560041 1.5994084
4.4197369 -0.3109062 1.6784436
4.4127021 -0.209104 1.6071912
4.6981087 0.32336569 1.6785133
4.6700172 0.27296811 1.5607163
1.7202348 -0.1202329 2.1924303
3.6356525 0.0150478 0.70420432
1.8036608 -0.2681396 2.1373878
1.8116243 -0.2636297 2.1152861
1.5018423 -0.17296229 2.1866164
1.7278038 0.0075832 2.1234996
1.530373 -0.30419639 2.0681813
1.7928752 0.1159612 2.1453652
1.739157 -0.2790767 2.1318698
1.5488331 -0.3246941 2.027621
1.8136284 -0.1356732 2.1255639
1.4506841 -0.050819099 2.2199087
0.89570701 -0.82154769 2.1772535
2.7191656 -0.535586 2.0687852
1.8450365 -0.033382501 2.257395
1.4753752 -0.0256168 2.3779569
1.6608429 0.0215513 2.2455168
1.6981671 -0.2322354 2.2014785
1.8190067 -0.13427439 2.233135
5.6559386 0.70549423 -0.051809501
1.4145241 0.27520749 1.9003444
1.1993921 0.220099 1.9804176
0.98415428 -0.57760578 2.2921693
4.618927 0.99596012 0.26099309
4.819952 0.2600233 1.5171418
4.9725442 1.0820153 -0.0999448
4.8520379 0.4703775 1.4013615
5.9206786 -0.76907921 0.66771829
4.1111269 1.0289803 0.22439051
3.8835742 0.81383312 0.67805088
2.4494143 0.49239701 1.4276582
5.0000672 -1.3110975 1.0269994
5.9194641 -0.2282646 0.90755278
4.8885217 -1.3424677 0.96821189
5.6743035 0.55190641 1.315522
5.6997495 -0.57923472 -0.45496061
5.7039766 -0.56840599 0.86473519
4.7725425 0.32507899 1.6808438
3.8585317 0.20100521 1.4539675
4.1561627 0.22160649 1.3754005
5.628634 -0.65516818 -0.72580308
5.7875071 0.62790072 1.0144467
3.5345061 -1.6136752 1.2889086
5.7994046 -0.47046569 0.74634588
5.5441813 0.7854203 -0.1914897
2.7098875 0.56631261 1.2469351
2.1781864 -0.2697362 1.4988211
4.8946357 -1.2269319 0.9302423
4.0137887 0.2464212 1.8424113
3.7788842 0.83465672 0.63968933
4.3954239 0.5687511 1.2639335
1.8697435 0.057167798 2.147604
1.8009018 -0.33560079 2.2236495
4.3431978 0.34571859 2.7126291
4.342679 0.54652351 1.0959291
3.876478 0.8039996 0.65729529
1.8633384 -0.040573001 2.2019176
1.8336518 0.071761303 2.4014311
1.7955786 -0.36846629 2.2282131
5.6609921 -0.49581999 0.86434537
2.5742977 0.087411299 1.4661821
0.1605188 0.34689829 1.7278842
1.7210093 0.64384818 1.0677559
4.5526142 -0.26779759 1.5731715
4.3970261 -0.30903181 1.5112256
4.3534036 -0.42869651 1.8876345
-0.88244969 0.27542681 1.9359077
-0.8944031 -0.15351219 2.6278949
1.6481431 0.63891393 1.2298108
1.9118091 -0.0365806 2.0732479
1.888571 -0.37043989 2.2124104
1.8931808 -0.5303992 2.0774403
2.6304486 -0.15510119 1.1858873
-3.2221029 0.86290842 -4.4703803
-2.3366315 -0.55159682 1.296775
-2.3978298 -0.7837404 0.31682691
-3.1084285 0.5164876 -3.5803294
-1.299508 0.41248319 -0.55593669
-3.2375658 0.65251189 -1.8058627
-0.95013273 1.7355829 -1.8220894
-1.747649 -0.29658541 -0.73249608
-3.1889398 0.80833781 -3.8536084
-2.4065459 2.0245631 -3.5837221
-3.3347428 0.77737719 -2.1188214
-3.2600322 0.86104369 -4.4874239
0.94670999 1.1143311 -0.55799502
-2.9342604 0.54311597 -1.3540914
-2.827698 -0.60853833 0.38331649
-2.5921988 1.6242508 -4.0519023
-2.8611641 2.2350852 -3.195282
-3.471463 1.1931102 -3.1177104
0.28284279 0.3316386 1.5853287
-2.2402084 -0.94540173 1.1631535
-2.8241177 -0.2800954 0.60635042
0.19638561 0.41383669 1.6804917
-0.63985771 -2.0368116 2.0988512
-2.213717 -0.93585432 2.2018347
-1.7640327 -0.41169879 -0.45719451
-2.4331436 -1.9697574 1.9049621
-2.290729 -1.228961 1.5199492
-2.3796165 -0.48804781 1.1566341
0.32347491 0.32627481 1.5493486
0.69149882 0.1950985 1.9923506
-0.48571271 -1.9627177 1.9557759
0.90258569 0.62979108 -0.90016878
-2.3685184 -0.4833647 1.1498033
-1.2191657 0.3026399 -0.1995346
-2.2626128 -0.93798637 1.1756541
-2.2314301 -2.2796688 2.742821
-2.6009772 -0.2407985 0.50718158
-2.2977476 -0.98057967 1.1971999
-1.3369 0.29716209 -0.1474528
-2.0812166 -1.8475689 1.6989521
0.2002373 0.1959821 1.831112
0.48025 0.51112622 1.3313155
-3.5283463 1.0879844 -4.3636465
-2.6959424 -0.26554811 0.55623031
-0.87280321 0.2735427 1.8994968
-1.3164973 0.31442869 -0.1713082
-2.2704225 -0.59698713 1.3970724
-2.9531014 1.339527 -4.2665782
-2.1019833 1.4341021 -3.5828149
-1.7105285 0.1667871 -0.54697359
-1.9679112 -0.68147159 1.5354719
-2.0724628 1.4294927 -3.5837274
-3.3611162 1.0117854 -2.6748676
-0.95538813 1.7361033 -1.8230461
-3.1289675 0.5134005 -3.5812035
-2.7353518 2.1756394 -3.1598251
-2.0512037 1.4154619 -3.549618
-2.3072512 1.9962113 -3.5483868
-3.1378033 0.50774902 -3.5822065
-2.353476 2.0090654 -3.5636454
-3.1580989 0.80054951 -3.8445184
-3.3295019 0.833718 -2.2291031
-3.5511806 0.58639139 -3.1154199
-1.7905203 0.1660642 -0.52004677
-3.2903686 1.0019279 -2.6733637
-2.5726831 1.8591068 -3.3169725
-3.1496594 0.85593092 -4.436687
-3.4905488 1.1937759 -3.1255622
-2.6399639 -0.2321517 0.52278697
-3.3030202 0.65841591 -1.801258
-1.5249906 0.1708588 -0.59507978
-3.3744791 0.39554691 -2.8237114
-2.494066 2.0534289 -3.6097066
-3.1670508 0.79542983 -3.8504479
-2.5411398 1.8545572 -3.3166268
-2.1727033 2.1912415 -3.4199402
-3.1773834 1.0262552 -4.2152019
0.87457651 0.69914901 -0.74163842
-3.6886778 1.209793 -3.1577947
-2.3660617 -0.95266777 1.2356727
-2.3971019 -0.56590182 1.3175629
-2.8525984 2.2060287 -3.1872661
-2.0395291 -0.76347888 1.8510627
